ply
format ascii 1.0
comment PCL generated
element vertex 1422
property float x
property float y
property float z
element camera 0
property float view_px
property float view_py
property float view_pz
property float x_axisx
property float x_axisy
property float x_axisz
property float y_axisx
property float y_axisy
property float y_axisz
property float z_axisx
property float z_axisy
property float z_axisz
property float focal
property float scalex
property float scaley
property float centerx
property float centery
property int viewportx
property int viewporty
property float k1
property float k2
end_header
-0.01154837 -0.099196434 1.8893898
-0.0052659512 -0.097623095 1.8893741
0.038617492 -0.094678611 1.8851665
0.063736886 -0.091412731 1.8878773
0.073268138 -0.095594719 1.8870616
0.086814404 -0.092021696 1.8849654
0.19016592 -0.091121808 1.8838917
0.20301409 -0.091987208 1.8896916
0.24579155 -0.095189273 1.8837813
0.25438306 -0.095427826 1.8877076
0.26372355 -0.09357357 1.8813193
0.27770129 -0.09433347 1.8829083
0.28586036 -0.090579048 1.8873299
0.30584952 -0.096843854 1.8859839
0.044796959 -0.08505062 1.8861442
0.053104836 -0.08262191 1.8851267
0.095126435 -0.088587634 1.8872093
0.10443398 -0.084725961 1.8873801
0.11687315 -0.081086397 1.8874247
0.12648138 -0.084757507 1.8866729
0.13602653 -0.086418465 1.8861679
0.14531854 -0.08306215 1.8862811
0.1832132 -0.082675599 1.8851354
0.19617401 -0.086549178 1.8842598
0.2054662 -0.083696924 1.8843169
0.22567011 -0.084568352 1.8856817
0.23444314 -0.087643765 1.8860924
0.24083865 -0.087574847 1.8890538
0.26315761 -0.087582216 1.8883733
0.27297041 -0.089723058 1.8878213
0.28544945 -0.087586351 1.8813845
0.29377124 -0.085497133 1.8855911
0.057264969 -0.079899266 1.8894851
0.15456215 -0.079206467 1.8864574
0.16365792 -0.073848933 1.8836952
0.17603683 -0.070217609 1.8868737
0.21423683 -0.074843645 1.8851202
0.16936088 -0.0647678 1.8846354
0.052516043 -0.59326702 1.8952661
-0.30904377 -0.58033353 1.8963016
-0.29342228 -0.58072543 1.8912477
-0.28288722 -0.58172613 1.8912159
-0.2685405 -0.58033133 1.8962836
-0.25842834 -0.58033037 1.8962758
-0.24403392 -0.58246154 1.8945206
-0.23743743 -0.58232975 1.896196
-0.22268358 -0.58102244 1.8936985
-0.21492703 -0.58152175 1.8936737
-0.20250988 -0.58132339 1.8961812
-0.19279057 -0.58032078 1.8961964
-0.16722059 -0.58131653 1.8961244
-0.11430594 -0.58130401 1.896021
-0.10406718 -0.58180177 1.8959844
-0.094147265 -0.58129871 1.895977
-0.082097888 -0.58476281 1.894169
-0.073408209 -0.58576185 1.894124
-0.06468799 -0.58332807 1.8928295
-0.051296592 -0.58128649 1.895877
-0.042791646 -0.58141464 1.8941714
-0.035313249 -0.58398044 1.893239
-0.027408168 -0.58522928 1.8931828
-0.017280459 -0.58578098 1.895662
-0.0087884367 -0.58928186 1.8955384
0.01936236 -0.58126515 1.8957007
0.027187437 -0.58226371 1.8956516
0.039575011 -0.58125889 1.8956491
0.047283873 -0.58145195 1.893098
0.056141466 -0.58725989 1.895432
0.06278877 -0.58325386 1.8955317
0.075129725 -0.58191532 1.8955394
0.11285506 -0.5807361 1.8954794
0.19160122 -0.58121443 1.8952821
-0.33065093 -0.57733089 1.8963922
-0.32411331 -0.57452291 1.8939456
-0.31342506 -0.57759166 1.8930187
-0.30384052 -0.57625681 1.893057
-0.29255548 -0.57512498 1.8947691
-0.28366494 -0.57432687 1.8964725
-0.27512717 -0.57612062 1.8926239
-0.26380733 -0.57491887 1.8930683
-0.25516242 -0.5755204 1.8938878
-0.24871099 -0.57871926 1.8912717
-0.23432191 -0.5768671 1.8925667
-0.22850168 -0.57932568 1.8962748
-0.21053493 -0.57270592 1.8913875
-0.20423146 -0.57624555 1.8929639
-0.19640961 -0.57701361 1.8937747
-0.18594109 -0.57386905 1.8943529
-0.17606974 -0.57490534 1.8929573
-0.16513892 -0.57723922 1.8928738
-0.15694599 -0.57425237 1.893786
-0.14699987 -0.57374936 1.8937798
-0.12584358 -0.57409608 1.894568
-0.11607453 -0.57518828 1.8911474
-0.10596824 -0.57518554 1.891125
-0.09538725 -0.57668459 1.8910611
-0.087503016 -0.57768375 1.8910162
-0.05533123 -0.57854527 1.892599
-0.046527922 -0.57967442 1.8908644
-0.021836996 -0.57766414 1.8908548
-0.0141204 -0.57816243 1.8908219
-0.0048720017 -0.57521099 1.8934067
0.0055985251 -0.57339108 1.8942771
0.015410085 -0.57852364 1.8924199
0.025216475 -0.57364392 1.8908389
0.035240252 -0.57684857 1.8924136
0.043689072 -0.57664227 1.8907113
0.05519864 -0.57163191 1.8908136
0.066043034 -0.57463241 1.8907058
0.076196864 -0.57462931 1.8906796
0.085279398 -0.57403332 1.894051
0.10554672 -0.57348937 1.8923253
0.11801568 -0.57648927 1.8922119
0.12602481 -0.57435483 1.89394
0.13679852 -0.57322156 1.8956409
0.15919444 -0.57021219 1.8956763
0.1855455 -0.57520992 1.8954709
0.19287975 -0.5728991 1.8929815
0.22606209 -0.57319778 1.8954451
-0.33591509 -0.56470633 1.8916909
-0.30355442 -0.56932342 1.8966305
-0.14151213 -0.56749082 1.8939428
-0.13491066 -0.56688619 1.8930988
0.0013616681 -0.56964624 1.8910071
0.086963445 -0.56561387 1.8908902
0.094664343 -0.56616908 1.8933986
0.12724361 -0.56259757 1.8908683
0.13521044 -0.56409729 1.8908091
0.14222357 -0.56120801 1.8959789
0.15593795 -0.5659011 1.89326
0.16509096 -0.56446105 1.8924292
0.17697875 -0.56432956 1.8941067
0.18474418 -0.56959045 1.8905469
0.19754191 -0.56445211 1.8923558
0.20754604 -0.5627811 1.8923823
0.21619958 -0.56344604 1.8923429
0.22475748 -0.56364977 1.8940233
-0.34566736 -0.55450177 1.8945217
0.14369993 -0.5548923 1.8935997
0.1517764 -0.55658245 1.8909681
0.16735858 -0.55819798 1.8960087
0.17284662 -0.55958045 1.8908393
0.20320776 -0.55718756 1.8959601
0.22911081 -0.55756319 1.8907715
0.24747984 -0.55396682 1.8942518
-0.36244529 -0.54029721 1.8975031
-0.35370219 -0.54830462 1.8972639
0.1450029 -0.54757237 1.8912231
0.23529294 -0.54635787 1.8936343
0.24313653 -0.54654521 1.8910365
0.25331193 -0.54535222 1.893625
-0.38408861 -0.53420812 1.8942304
-0.37724677 -0.53629297 1.8976173
-0.36988574 -0.53529257 1.8976517
-0.35725623 -0.53967559 1.8923746
0.25746641 -0.53684151 1.8938558
0.26510558 -0.53565186 1.896472
0.27523947 -0.53258324 1.8939464
-0.41362408 -0.52340275 1.8962487
-0.40455255 -0.52386212 1.8945128
-0.39695391 -0.52146477 1.8954537
-0.37482902 -0.52365559 1.8928094
0.26429299 -0.52801609 1.89149
0.28197095 -0.52231979 1.8942202
-0.42871124 -0.51026523 1.8983638
-0.41964829 -0.51764393 1.8929378
-0.40521783 -0.51527256 1.8982363
0.28622228 -0.51312536 1.8970972
0.2966927 -0.51180506 1.8944919
0.30402836 -0.51491266 1.8952676
0.33892345 -0.5111146 1.897083
0.29068857 -0.50479805 1.894697
0.307082 -0.5094834 1.8919135
0.31450269 -0.5040428 1.8946819
0.32617792 -0.50602067 1.8937336
0.33500037 -0.50568581 1.893733
-0.44164181 -0.49425 1.8988385
-0.43772519 -0.49061009 1.8936716
0.28475645 -0.49847305 1.8922408
0.32192278 -0.49810439 1.8974862
0.34293854 -0.49409717 1.8975776
-0.45274502 -0.48223841 1.8991923
-0.44737089 -0.48159826 1.893911
0.34594312 -0.48599398 1.8942634
0.3565723 -0.48465705 1.8942837
0.36656964 -0.48758781 1.8977435
0.37802699 -0.4845356 1.8960449
0.38520417 -0.48508328 1.8978
0.3933605 -0.48708445 1.8977346
0.40108904 -0.48007694 1.8979347
-0.45563048 -0.47558987 1.8940675
0.35257524 -0.47908121 1.8980076
0.36604196 -0.47843385 1.8926674
0.37405869 -0.47743151 1.8926862
0.38494185 -0.47943312 1.8926229
0.39289451 -0.47692889 1.8926833
0.40343559 -0.47174519 1.895498
0.41422337 -0.47156751 1.8981762
0.42235565 -0.47206748 1.8981566
-0.52086723 -0.4645611 1.8942416
-0.46681532 -0.46389806 1.8970596
0.40592566 -0.46641406 1.8929539
0.41392279 -0.46290886 1.8930421
0.42485219 -0.46523637 1.8956692
0.43282622 -0.46005502 1.8985045
-0.52148008 -0.45254809 1.8945847
-0.51431155 -0.45243371 1.8964037
0.42738819 -0.45940334 1.8931282
0.43634152 -0.45528147 1.8950354
0.44352219 -0.45204663 1.8987353
-0.50597548 -0.44504452 1.8948364
-0.47904849 -0.4495559 1.8947624
0.4470748 -0.44727159 1.8952538
0.45705238 -0.4439601 1.8962499
0.46528435 -0.44421011 1.8962398
0.47349185 -0.44253635 1.8990073
-0.50043344 -0.43953988 1.895005
-0.49314049 -0.43753958 1.8950762
0.47344387 -0.43537015 1.8937544
0.48353073 -0.43314013 1.897457
0.48719746 -0.42635825 1.8939936
0.4927392 -0.42001414 1.8996682
0.58154851 -0.42001811 1.8997009
0.59526157 -0.42302254 1.8996232
0.60642529 -0.42152214 1.8996768
0.61440241 -0.42702842 1.8995225
0.62005776 -0.42502731 1.8995869
0.49645099 -0.41623342 1.8961016
0.50667101 -0.41317433 1.8971074
0.51501906 -0.41400862 1.8998471
0.52338564 -0.41300794 1.8998785
0.53448099 -0.41501027 1.8998232
0.54561847 -0.41442686 1.8970816
0.55965602 -0.41033962 1.8944404
0.56527042 -0.41000718 1.8999844
0.57345891 -0.41392821 1.8971117
0.58541483 -0.41590381 1.8961455
0.5955689 -0.41635048 1.8943053
0.60963458 -0.41334808 1.8943977
0.61482787 -0.4193565 1.8942426
0.62331533 -0.41718751 1.8970664
0.63448727 -0.41652057 1.8998518
0.64582795 -0.4135192 1.8999529
0.51511639 -0.40533122 1.8945572
0.52348399 -0.4063327 1.8945323
0.53463352 -0.40733445 1.8945092
0.5541445 -0.40833682 1.894491
0.56530404 -0.40833756 1.8944972
0.604352 -0.40834114 1.8945265
0.62692404 -0.40433869 1.8946553
0.63802242 -0.40534139 1.894641
0.64623904 -0.40734515 1.8945973
0.65452427 -0.40834773 1.894581
0.63292831 -0.3983314 1.894822
0.66411608 -0.39383 1.89498
0.67537701 -0.39333126 1.8950088
0.68398142 -0.3913303 1.8950742
0.69343805 -0.38081801 1.8953682
0.70424151 -0.3760874 1.8936342
0.70948094 -0.36161354 1.8902495
0.71453357 -0.36830559 1.8957343
0.72388577 -0.36079755 1.8959498
0.71635997 -0.35059682 1.8905243
0.73323321 -0.35344702 1.8933196
0.75324702 -0.35320133 1.8933649
0.76211083 -0.35129347 1.8962716
0.72510886 -0.34909606 1.8905752
0.73947954 -0.34894204 1.893448
0.74532378 -0.34794199 1.8934851
0.76581824 -0.34444177 1.8936143
0.76966894 -0.33658567 1.890957
0.77516079 -0.33928075 1.8966161
0.78419685 -0.33627898 1.8967137
0.81363106 -0.33178025 1.8968949
0.77650189 -0.32857409 1.8911619
0.78557992 -0.3255713 1.891252
0.79468727 -0.3232643 1.8970809
0.80336499 -0.32326651 1.8970989
0.82634234 -0.32427374 1.8971218
0.79582268 -0.31455559 1.891536
0.80401576 -0.3180638 1.89147
0.81583995 -0.31656432 1.8915316
0.83679026 -0.31326196 1.8974371
0.86386985 -0.3130368 1.8955798
-0.51324445 -0.30261666 1.8950273
-0.48049754 -0.30168518 1.8940437
0.82563376 -0.30955538 1.8917204
0.84358752 -0.30725586 1.8976117
0.85308123 -0.30275255 1.8977528
0.86207426 -0.30055079 1.8920195
0.87622643 -0.30376047 1.8977804
0.89378369 -0.30326501 1.8978361
0.90213776 -0.30526996 1.8978037
0.95132077 -0.30390498 1.8993717
-0.5059709 -0.29893801 1.8952121
-0.49477172 -0.29188204 1.8956578
-0.48630899 -0.29817629 1.8946449
0.8367728 -0.29453361 1.8921033
0.84572184 -0.29353443 1.8921478
0.87481469 -0.29454437 1.8921933
0.88652515 -0.29525197 1.8980308
-0.47084481 -0.28569663 1.8955768
-0.46345401 -0.28099954 1.8958749
-0.45706207 -0.28143215 1.8956108
0.85560709 -0.28702652 1.8923259
0.89478779 -0.28152895 1.892552
0.92837805 -0.28076315 1.8952558
-0.4498927 -0.27776289 1.8957965
-0.43296459 -0.27371937 1.8956985
0.88687909 -0.27651823 1.8926513
-0.4419781 -0.26999465 1.8964332
-0.4224633 -0.26924616 1.8958657
0.91441274 -0.26185989 1.8975189
-0.41409963 -0.25841349 1.8968426
-0.40053493 -0.25416273 1.8903054
-0.39416924 -0.25459793 1.890038
0.88306719 -0.25358671 1.8922808
0.89385569 -0.25412777 1.8919404
0.90570343 -0.25759757 1.89127
-0.4056128 -0.24656181 1.8979335
-0.39840233 -0.24188092 1.8982347
-0.38628006 -0.24582383 1.890813
-0.37926275 -0.24216826 1.8910092
0.87249684 -0.24345003 1.8936045
0.89442569 -0.24551463 1.899683
0.90264964 -0.24880648 1.899137
-0.39035636 -0.23208477 1.8991017
-0.38303262 -0.22638553 1.8995173
-0.37259638 -0.22746037 1.8968714
0.85930049 -0.22548552 1.8958042
-0.36190444 -0.21339026 1.8938397
0.82093233 -0.21482655 1.897915
0.84720451 -0.21044602 1.8976735
0.81601477 -0.20014288 1.8928267
0.83278775 -0.2019974 1.8966783
-0.35341245 -0.19952208 1.8951992
-0.34623039 -0.19383584 1.8956312
0.7934112 -0.19411322 1.8940654
-0.32547191 -0.18087371 1.8900684
0.72776973 -0.18086869 1.8972139
0.73498929 -0.18223479 1.8968769
0.74221873 -0.18360028 1.8965398
0.75322711 -0.18613754 1.8959782
0.7618441 -0.18082611 1.8963104
0.77573568 -0.18159176 1.8958598
0.78268796 -0.18197425 1.8956345
0.79850507 -0.18861467 1.8945116
-0.33400238 -0.17509541 1.8974428
-0.31525677 -0.17542127 1.8935754
0.71936995 -0.1755736 1.894675
0.72507906 -0.17203277 1.8915826
0.73543286 -0.17261297 1.8912416
0.74699116 -0.17711672 1.8904428
0.76817614 -0.17924806 1.8963089
0.79973924 -0.17136759 1.8963033
-0.32381257 -0.1696423 1.8977449
-0.30493617 -0.16895129 1.8971865
-0.28555524 -0.16417722 1.8907316
0.70586514 -0.16418596 1.8929503
-0.29696 -0.15613744 1.8984385
-0.27768159 -0.15137288 1.8920182
0.59811306 -0.15119745 1.8907194
0.61840397 -0.15189432 1.8933657
0.62612402 -0.15573838 1.896021
0.66519135 -0.1512145 1.8954533
0.69333148 -0.15573794 1.8942039
-0.28676549 -0.14967611 1.8988603
-0.27112472 -0.14876667 1.8921107
-0.26396498 -0.14106639 1.8928016
-0.25780085 -0.1415195 1.892536
-0.24545334 -0.14242427 1.8920045
-0.23601133 -0.14157434 1.8917859
0.52361673 -0.14581202 1.8999037
0.53400475 -0.14789814 1.8961236
0.54903638 -0.14050028 1.8997781
0.57623345 -0.14309247 1.8987513
0.58632731 -0.14369324 1.8951429
0.5955494 -0.14034614 1.8985213
0.60707021 -0.14686346 1.890955
0.61103582 -0.1490324 1.897158
0.63362062 -0.14598894 1.8936002
0.67405993 -0.14688838 1.8956831
0.6829046 -0.14256439 1.8959135
-0.27610314 -0.13914053 1.8997507
-0.2694535 -0.13551806 1.8999557
-0.2527914 -0.13435249 1.8974276
-0.24449487 -0.13427962 1.8992578
-0.23546812 -0.13699526 1.8986299
-0.22590527 -0.13461976 1.8954389
0.45452571 -0.13185845 1.8903887
0.48461926 -0.13369182 1.8958118
0.49544358 -0.13826171 1.8950014
0.50093049 -0.13272779 1.8954619
0.52227461 -0.1398789 1.8940729
0.54091454 -0.13416941 1.8941886
0.5659641 -0.13729286 1.8953218
0.57499093 -0.13815856 1.8928037
0.58455086 -0.13629305 1.8960013
0.60157692 -0.1377876 1.8986342
0.63513076 -0.13880001 1.8976128
0.64346242 -0.13250598 1.8980694
0.65360606 -0.1331051 1.8977301
-0.21581872 -0.12715992 1.8959911
-0.20599838 -0.12173745 1.8931736
-0.1969445 -0.12496001 1.8987594
-0.16894189 -0.12445 1.8915862
0.40703976 -0.12302817 1.892751
0.4138189 -0.1244339 1.8923963
0.43943852 -0.12112024 1.8920389
0.44714653 -0.12748247 1.8910962
0.46333703 -0.12602825 1.8940265
0.47345412 -0.12713674 1.8968529
0.5067994 -0.12917559 1.8956922
0.51285887 -0.12661439 1.8958074
0.54607803 -0.12765667 1.8947687
0.55188036 -0.12411047 1.8950019
-0.20575853 -0.11970543 1.8996806
-0.19624138 -0.11682727 1.8934386
-0.1848622 -0.11681295 1.8951426
-0.17462692 -0.11790578 1.8925737
-0.16408412 -0.11595274 1.8966316
-0.15539204 -0.11012661 1.8928677
0.39881885 -0.11267994 1.894163
0.41857395 -0.11392601 1.8934534
0.42499632 -0.11334801 1.8933349
0.43390432 -0.11423018 1.8972625
0.44505623 -0.11558036 1.8989357
0.45497948 -0.1161994 1.8985866
-0.15527098 -0.10911343 1.8992411
-0.1361776 -0.10134138 1.893286
-0.10508765 -0.1005649 1.8985804
-0.080303237 -0.10135262 1.891409
-0.074233472 -0.10584895 1.8937948
-0.065770753 -0.10240037 1.8949728
-0.055384532 -0.10264052 1.8935571
-0.04910522 -0.10157153 1.8934758
0.016721927 -0.10472164 1.8940823
0.026167408 -0.10487957 1.8937573
0.032484338 -0.10733503 1.8932616
0.34534246 -0.10236997 1.8937
0.37788236 -0.10347633 1.8958135
0.38427019 -0.10290143 1.8956937
-0.14526606 -0.098631427 1.8939219
-0.12648481 -0.094925106 1.8937387
-0.11296964 -0.093206584 1.8955666
-0.1049154 -0.096511878 1.892821
-0.095576137 -0.096178085 1.8956674
-0.084194571 -0.096330635 1.8963081
-0.061512038 -0.098653451 1.8911102
-0.042622522 -0.092924021 1.8943
-0.033257745 -0.092081174 1.8940924
-0.023847491 -0.090229124 1.8971255
-0.0051386505 -0.090561368 1.8964747
0.0042308047 -0.090726018 1.8961499
0.038736939 -0.099716388 1.8939641
0.31481665 -0.091002449 1.8927404
0.33452317 -0.094019823 1.8949773
0.3545157 -0.098523363 1.8970549
0.36374056 -0.095674187 1.8939281
0.37029073 -0.096095465 1.8968716
0.38621184 -0.095160946 1.8901577
0.39018166 -0.099345401 1.8959267
-0.036281317 -0.089332119 1.8976398
-0.014425382 -0.085853159 1.897337
0.044908524 -0.088072881 1.8951476
0.066759109 -0.082578346 1.8950977
0.076223001 -0.085254535 1.8944769
0.085534237 -0.081392519 1.8946382
0.094920099 -0.08054778 1.8944396
0.18971068 -0.08411254 1.8910387
0.19630416 -0.087049909 1.8936293
0.20851444 -0.081412286 1.8907781
0.22781622 -0.08371269 1.8962016
0.23412022 -0.083145328 1.896076
0.2564913 -0.084155932 1.8952816
0.26585245 -0.082305275 1.8952143
0.27858222 -0.08216776 1.8948479
0.28546759 -0.086587921 1.8941281
0.29513091 -0.087230235 1.8937647
0.3040719 -0.08188954 1.8941185
0.32357723 -0.084168956 1.8964293
0.054090492 -0.073134676 1.8966258
0.10107158 -0.076970153 1.8946688
0.12588894 -0.070704654 1.8946272
0.13535132 -0.071869105 1.8941908
0.14488533 -0.074035034 1.8936338
0.15417981 -0.071686409 1.8936214
0.18591064 -0.074881427 1.895386
0.20526859 -0.079693981 1.8973564
0.21445704 -0.076344162 1.8943355
0.22086875 -0.077279106 1.8940274
0.23956315 -0.073583469 1.8970211
0.24633449 -0.078014128 1.8963015
0.27194268 -0.079741314 1.8953289
0.10697792 -0.067366838 1.8956217
0.11618605 -0.063514099 1.8957876
0.16629702 -0.064547993 1.8940907
0.17582344 -0.066210523 1.8935964
0.18219736 -0.066650391 1.8995789
-0.26042616 -0.60155362 1.9056176
-0.25502098 -0.60255331 1.9055785
-0.2657764 -0.59394765 1.9008808
-0.25489783 -0.59414798 1.9025341
-0.24728724 -0.59054923 1.9059941
-0.20742279 -0.5916757 1.9042376
-0.084140182 -0.59051704 1.9057288
-0.059042811 -0.59051031 1.9056734
-0.046203017 -0.59150708 1.9056094
-0.033934772 -0.59050333 1.9056157
-0.026123375 -0.59150147 1.9055626
-0.016351193 -0.59049833 1.9055743
-0.0085326731 -0.59088963 1.9005147
0.033931211 -0.59048367 1.9054536
0.055485711 -0.59587383 1.9001966
0.06459485 -0.59247535 1.9053102
0.10548471 -0.59576738 1.9076068
-0.29659104 -0.58105046 1.9063601
-0.27074355 -0.58855093 1.9060827
-0.25099081 -0.58694196 1.9010967
-0.24286206 -0.58647627 1.9027795
-0.23433846 -0.58474219 1.903667
-0.22483653 -0.58324015 1.9037069
-0.21556661 -0.58774126 1.9035468
-0.20258689 -0.58647066 1.9027332
-0.19404164 -0.58473599 1.9036162
-0.18397176 -0.58503807 1.9061081
-0.17407244 -0.58199906 1.9045173
-0.16687745 -0.58292586 1.9011136
-0.13465324 -0.58202672 1.9061272
-0.1227957 -0.58465528 1.9043308
-0.11424129 -0.58246773 1.90355
-0.10336904 -0.58496594 1.9034413
-0.094059847 -0.58511204 1.902575
-0.085266076 -0.58664662 1.9041849
-0.073702186 -0.58320737 1.9034367
-0.063765503 -0.58543748 1.9024968
-0.05360508 -0.58576816 1.9024628
-0.042169243 -0.5873971 1.9007075
-0.034769375 -0.58709711 1.9023758
-0.023150951 -0.58338881 1.9007896
-0.014639676 -0.58688873 1.9006573
-0.0048436746 -0.58634156 1.9044304
0.0064842105 -0.58441645 1.9023613
0.01535598 -0.58244234 1.9037545
0.024894103 -0.5841794 1.9031678
0.033211783 -0.58687437 1.9005392
0.043643542 -0.58867633 1.9029742
0.053242207 -0.58697689 1.9055281
0.06545683 -0.58452982 1.9005336
0.075237758 -0.5835669 1.9043306
0.089935988 -0.5808534 1.9005905
0.092882484 -0.58346409 1.9055543
0.10406383 -0.58405417 1.9021345
0.11349542 -0.58490396 1.9029294
0.12346599 -0.58415103 1.902934
0.13359536 -0.58414769 1.9029065
0.14081362 -0.58245033 1.9054782
0.19404714 -0.58163071 1.9028597
0.22702765 -0.58142841 1.9053345
-0.3328433 -0.57293779 1.9015868
-0.32433105 -0.57524455 1.904043
-0.31286713 -0.57824552 1.9039384
-0.30398092 -0.57524323 1.9040326
-0.29172269 -0.57814318 1.9030943
-0.28534061 -0.57334465 1.9049435
-0.27907211 -0.57994026 1.901345
-0.18685561 -0.57642555 1.9013557
-0.1798116 -0.57492328 1.9013928
-0.16420303 -0.5766291 1.9051065
-0.15808532 -0.57222313 1.9039788
-0.14474565 -0.57422066 1.9038835
-0.13664898 -0.57541406 1.9012986
-0.12757659 -0.57991499 1.9011364
-0.082171559 -0.57990324 1.9010397
-0.0013770759 -0.57988 1.900848
0.079586625 -0.57985574 1.9006476
0.084213823 -0.57815909 1.9032254
0.094790727 -0.57985127 1.9006107
0.13989013 -0.57683629 1.9005996
0.1459332 -0.573241 1.9040886
0.15953508 -0.57282817 1.9006827
0.16709112 -0.57294005 1.90575
0.1796121 -0.5708214 1.9007027
0.18601669 -0.57913136 1.9029589
0.19341454 -0.57762837 1.9029914
0.20246811 -0.57589394 1.9038757
0.21553367 -0.57242793 1.9056687
0.22273517 -0.5746845 1.9021851
0.23081125 -0.57161665 1.9031194
-0.35305929 -0.56254607 1.9070182
-0.3451426 -0.56273925 1.9044683
-0.33459723 -0.56954819 1.9067727
-0.30865204 -0.56993592 1.9016837
-0.15354437 -0.56811768 1.9032584
0.14752087 -0.56282473 1.9010292
0.15505901 -0.56723601 1.9042727
0.16624331 -0.56732267 1.9008436
0.17558479 -0.56756389 1.9042149
0.20772517 -0.5653494 1.9025205
0.21481264 -0.56680995 1.9007578
0.23477307 -0.56342059 1.9059449
-0.36314094 -0.5509246 1.9023032
-0.35440147 -0.55892938 1.9020427
0.23727399 -0.55600405 1.9027716
0.2466327 -0.55535501 1.9036324
0.25594786 -0.55420583 1.904511
-0.39930379 -0.54053807 1.9077771
-0.37147146 -0.54454124 1.907653
-0.36538613 -0.54654193 1.9075844
0.25879109 -0.54878807 1.9012526
0.26502845 -0.54353255 1.9048563
0.27331227 -0.54040492 1.9066784
0.29946914 -0.54140037 1.9066043
-0.4061175 -0.53122288 1.905515
-0.39354309 -0.53399599 1.9062926
-0.38382179 -0.5342263 1.9054297
-0.37328297 -0.53991807 1.9026619
0.26799548 -0.53877962 1.9015573
0.27645883 -0.53698564 1.9033321
0.28537712 -0.53139961 1.9069726
0.29606083 -0.53308403 1.9042938
0.30390286 -0.53339708 1.9068764
-0.41646552 -0.5221138 1.904952
-0.39872938 -0.5299105 1.9029757
0.28485858 -0.52576768 1.901947
0.29262543 -0.52476561 1.901967
0.30670166 -0.52564043 1.9036592
-0.43352228 -0.51252854 1.9087483
-0.42751613 -0.51371396 1.9060975
0.31522727 -0.51388872 1.9075394
0.32571799 -0.51288688 1.9075609
0.33712316 -0.51183987 1.9058295
-0.44313931 -0.50352544 1.9090605
-0.43829703 -0.50189114 1.9038656
0.31442297 -0.50424844 1.9025936
0.32774514 -0.50474662 1.9025606
0.33313859 -0.5057466 1.9025218
0.34520626 -0.50183439 1.9061595
0.35962445 -0.5053798 1.9077845
0.36481196 -0.50337857 1.907849
0.37013403 -0.50337797 1.9078441
0.38358021 -0.50587744 1.9077456
0.32174343 -0.49674222 1.9028246
0.34834665 -0.49573782 1.9028254
0.35635477 -0.49605682 1.9054575
0.36964622 -0.49473453 1.9028358
0.37498808 -0.49505395 1.9054706
0.38306242 -0.4957338 1.902792
0.39104894 -0.49555314 1.9054453
-0.45714927 -0.48552012 1.9096918
-0.4498601 -0.48888302 1.9042846
0.35298824 -0.48573071 1.9031414
0.36398083 -0.489732 1.9030017
0.39591438 -0.48554793 1.9057777
0.40300879 -0.48415375 1.9067065
0.41189176 -0.48236737 1.9085439
0.40634277 -0.47771993 1.9033525
0.41533279 -0.47793469 1.9051243
0.42414489 -0.47281435 1.9070816
-0.46632028 -0.46586889 1.905031
0.42754021 -0.46571073 1.903726
0.43286568 -0.46253368 1.9065222
-0.52395141 -0.4543497 1.9053042
-0.51696169 -0.45185062 1.9054062
0.43814683 -0.4565303 1.9067194
0.44625378 -0.45302844 1.9068357
0.45622849 -0.45058456 1.9060112
0.46536857 -0.45252785 1.9068494
0.4708097 -0.4503544 1.9096367
-0.5335964 -0.44018564 1.9003326
-0.52552176 -0.44519207 1.9001966
-0.51297224 -0.4485243 1.9028263
-0.50494754 -0.44478941 1.9035059
-0.48145938 -0.44552988 1.9029835
0.45983464 -0.44835392 1.9097085
0.47444391 -0.44791603 1.9060944
0.48171368 -0.44035107 1.9099839
-0.54322553 -0.43283474 1.905987
-0.50091541 -0.43919411 1.9004391
-0.49495897 -0.43477023 1.9033077
0.4844515 -0.43368801 1.904739
0.49550164 -0.42568296 1.9049962
0.50660384 -0.42268088 1.9050934
0.51493406 -0.42168024 1.9051268
0.52320051 -0.42518306 1.9050163
0.53160071 -0.4206802 1.905163
0.57591856 -0.4226844 1.9051205
0.5842098 -0.42318538 1.90511
0.59526473 -0.42368656 1.9051023
0.60923314 -0.42168647 1.9051782
0.61735582 -0.42468947 1.9050894
0.62593037 -0.42068785 1.9052262
0.63140577 -0.42168909 1.9051998
0.53719831 -0.41867906 1.9052293
0.54551989 -0.41917986 1.9052167
0.55687606 -0.41167575 1.9054627
0.56516284 -0.41367757 1.905403
0.57057303 -0.41768044 1.9052775
0.60380101 -0.41968477 1.9052378
0.63709259 -0.4196887 1.9052701
0.64564365 -0.41668791 1.9053758
0.6542927 -0.41235238 1.9027579
0.5569545 -0.40850514 1.9000241
0.66247422 -0.40345857 1.9039711
0.66696733 -0.39400318 1.900552
0.67520875 -0.39634243 1.9032751
0.68409193 -0.39167738 1.9062266
0.68436706 -0.38800016 1.9007521
0.69642568 -0.38067225 1.9065967
0.70555288 -0.38311729 1.9046682
0.71324682 -0.38099843 1.9010011
0.6929509 -0.37721708 1.9029541
0.70206386 -0.37999541 1.9010129
0.71357983 -0.37867397 1.9066867
0.72011572 -0.37067014 1.9069532
0.7244575 -0.36521256 1.9033667
0.73608327 -0.35506999 1.9046373
0.74474132 -0.35466444 1.9075066
0.75336283 -0.35382265 1.9047062
0.76478654 -0.35382524 1.904727
0.80511463 -0.35167605 1.9077159
0.7452178 -0.3499743 1.9019642
0.77409536 -0.34832251 1.9049124
0.79734778 -0.34582579 1.9050324
0.80577701 -0.3464849 1.9021833
0.81475496 -0.34432912 1.905116
0.78445691 -0.33556479 1.9053247
0.79305518 -0.33581647 1.9053302
0.8216604 -0.3368246 1.9053594
0.84557176 -0.33167288 1.90844
0.82924479 -0.32531646 1.9057243
0.83486569 -0.32666671 1.908577
0.84393752 -0.32381949 1.9058053
0.85243249 -0.32482246 1.9057921
0.87291402 -0.32367495 1.9087564
0.83615327 -0.31796452 1.9030823
0.84277451 -0.31296122 1.9032429
0.85968083 -0.31631756 1.9060705
0.86618173 -0.3123163 1.9062102
0.87362278 -0.31897569 1.9031374
0.88378882 -0.31166983 1.9091645
0.89462727 -0.31497753 1.9033039
-0.51624274 -0.30189043 1.9085534
-0.46127114 -0.30399895 1.9065177
0.88506508 -0.30396399 1.9036026
0.89277554 -0.30476725 1.9074678
0.90235138 -0.3053211 1.9065123
-0.51519585 -0.29675025 1.9024301
-0.50579166 -0.29842678 1.9052645
-0.49457186 -0.29137194 1.909008
-0.48518211 -0.29304701 1.908515
-0.47910252 -0.29501677 1.9047679
-0.46633428 -0.29639053 1.9075261
-0.45230681 -0.29109609 1.9076507
0.91071439 -0.29266456 1.9098338
0.92100215 -0.29896936 1.9038351
-0.49398977 -0.28828967 1.902689
-0.48461056 -0.28996557 1.9021889
-0.47075081 -0.28570014 1.9088541
-0.46689761 -0.28232336 1.9024687
-0.45430702 -0.28421417 1.9018366
0.9144156 -0.28795636 1.9041402
-0.44155172 -0.26794612 1.9032575
-0.42077881 -0.26002848 1.9034647
0.92243886 -0.26416782 1.9040033
0.93110681 -0.26842788 1.9033614
-0.43349242 -0.25915688 1.9039862
-0.42713875 -0.25959298 1.9037255
-0.41315737 -0.25329477 1.9039747
0.90483248 -0.25466433 1.9053894
0.91379714 -0.25990564 1.9046444
-0.40592077 -0.24861127 1.9042648
0.88298249 -0.24301636 1.9002335
0.8927809 -0.24062867 1.9070733
-0.50536031 -0.23537952 1.9025668
-0.39696553 -0.23369341 1.9056582
0.86861223 -0.23171577 1.9085723
0.8728078 -0.23385507 1.9048333
0.88390362 -0.23537952 1.9078168
-0.38774276 -0.21673536 1.907274
0.85703856 -0.21863919 1.9033595
-0.37599128 -0.20307782 1.9084312
0.83792222 -0.20322353 1.9054073
0.84396231 -0.20066383 1.9055059
-0.36564597 -0.19761071 1.9087064
-0.35833058 -0.19089851 1.902807
0.78783935 -0.19765055 1.907279
0.80780846 -0.19584735 1.9002175
0.82052368 -0.19268714 1.9002078
0.74640703 -0.18575242 1.9062188
0.77725273 -0.18600042 1.905387
0.78308517 -0.18295243 1.9021991
0.79161412 -0.18823293 1.9014298
0.80974644 -0.18055901 1.9084197
-0.35005611 -0.17805803 1.9040195
-0.31151786 -0.17156547 1.9034771
0.72582835 -0.17399339 1.9046365
0.73302913 -0.17536122 1.9043049
0.75198674 -0.17063104 1.9042907
0.76581573 -0.17140257 1.9038457
0.78730458 -0.17451452 1.9096144
0.79542518 -0.17881784 1.9022994
0.80118787 -0.17528117 1.9091736
0.81606281 -0.17898262 1.9084125
0.82008034 -0.17055684 1.9091527
-0.34200075 -0.16624494 1.90512
-0.31714332 -0.16703171 1.9041927
0.7091831 -0.16339529 1.9061697
0.71749002 -0.16869575 1.9054034
0.7573837 -0.16611335 1.9046135
-0.3347657 -0.15954576 1.9056545
-0.32448912 -0.15307692 1.90606
-0.30336618 -0.15772788 1.9048096
-0.29637247 -0.15205835 1.9052327
0.6253677 -0.15228745 1.906263
0.68665862 -0.1553424 1.9075973
0.69638872 -0.15421171 1.9041669
0.70796251 -0.15946722 1.9000058
-0.28658894 -0.14865787 1.9052987
0.52327442 -0.14383259 1.9066496
0.53444576 -0.14937922 1.9057579
0.54369819 -0.14602645 1.9058586
0.55044496 -0.14642742 1.9056321
0.57608175 -0.14210407 1.9053905
0.61426306 -0.14824389 1.9037077
0.63047802 -0.14628062 1.9034777
0.65615666 -0.14195938 1.9097875
0.67440158 -0.14367346 1.9047588
0.68464357 -0.14846183 1.901793
-0.27580404 -0.1371032 1.9062777
-0.26281917 -0.13189694 1.9001611
-0.25025558 -0.13077185 1.9061551
-0.24422269 -0.13224494 1.9057817
-0.23493141 -0.13241664 1.9054503
0.50455678 -0.13391927 1.9017191
0.51443076 -0.13353753 1.9047303
0.54165018 -0.13713308 1.900346
0.55428141 -0.13398604 1.9068413
0.56298769 -0.13353659 1.9044825
0.58443439 -0.1353043 1.9058821
0.59490901 -0.13738564 1.9053782
0.60165828 -0.13778614 1.9051533
0.63743258 -0.13456653 1.9045285
0.64640188 -0.13073529 1.9046924
0.6544838 -0.13605599 1.9039129
0.66143382 -0.13694546 1.9068999
-0.26553237 -0.12912281 1.9068593
-0.25627673 -0.12929769 1.9065284
-0.22509611 -0.12749951 1.9056917
-0.21872932 -0.12591831 1.9056622
-0.2029247 -0.12298398 1.9054743
-0.19376929 -0.12468001 1.9049716
0.4925268 -0.12340995 1.9031907
0.50633979 -0.12620458 1.9089757
0.55308086 -0.12904812 1.9009075
-0.21186288 -0.11925256 1.9062064
-0.18633145 -0.11090666 1.9063222
-0.16162524 -0.11170704 1.9054065
0.4051441 -0.11110851 1.9005663
0.41172397 -0.11152425 1.9003325
0.4350456 -0.11396714 1.9058204
0.44422865 -0.11062074 1.9059242
0.45478007 -0.11471113 1.9051857
0.46498799 -0.11681633 1.9046721
0.4749313 -0.11743358 1.9043276
0.48468965 -0.11705931 1.9040961
-0.1755455 -0.10489208 1.9024996
-0.16762546 -0.10922308 1.9058944
-0.15484419 -0.10404081 1.9060708
0.032504514 -0.10129089 1.9002659
0.38410205 -0.10091195 1.9086751
0.39440173 -0.1047702 1.9047697
0.40423229 -0.1051483 1.9076447
0.41509423 -0.1055128 1.9051647
0.42381519 -0.10590293 1.9038124
-0.17913768 -0.099171124 1.9074446
-0.14503711 -0.096351288 1.9035256
-0.13546187 -0.091709554 1.9037513
-0.1139563 -0.093808718 1.9059038
-0.10482283 -0.096514761 1.9052883
-0.095353946 -0.093142502 1.9053677
-0.086087838 -0.093820415 1.9049842
-0.076826192 -0.095002919 1.9045429
-0.064356849 -0.093880661 1.9042645
-0.054967672 -0.092027694 1.9041724
0.019919783 -0.097383454 1.9011233
0.02620095 -0.097826302 1.9008701
0.038779624 -0.095185012 1.9039041
0.3343192 -0.091778673 1.9047498
0.34447092 -0.095401168 1.9040536
0.35387209 -0.093546912 1.9039867
0.36960962 -0.09112262 1.9038011
0.37611598 -0.091544986 1.903567
0.38387442 -0.099918775 1.902416
-0.1258546 -0.086056903 1.9040958
-0.11672249 -0.087500259 1.9005193
-0.045445085 -0.085122645 1.9046628
-0.03606005 -0.08226189 1.9046888
-0.011201411 -0.081032723 1.9040246
-0.0050004572 -0.082490474 1.9036547
0.0074584633 -0.081369147 1.9033827
0.013664156 -0.089882627 1.9021949
0.032459229 -0.083156571 1.9086107
0.04496076 -0.085556693 1.9048128
0.076154783 -0.080226466 1.9013186
0.20855622 -0.080411658 1.9034501
0.27876022 -0.083165333 1.9010285
0.28533739 -0.084592193 1.9038241
0.2936554 -0.082836561 1.9048256
0.3236798 -0.084168375 1.9059026
0.36236972 -0.085726179 1.9046079
-0.026623614 -0.075868666 1.9051239
0.0012450665 -0.079912521 1.903752
0.016859084 -0.077504791 1.9097478
0.026199013 -0.077672228 1.9094313
0.051038884 -0.071905717 1.9061875
0.067677528 -0.072257131 1.9066559
0.07601276 -0.072180763 1.9084779
0.08540228 -0.074858055 1.9016485
0.18916818 -0.075100645 1.904642
0.19536287 -0.073535204 1.9046307
0.20147286 -0.070969217 1.9047358
0.21459258 -0.076844379 1.9036715
0.25563318 -0.075166814 1.902626
0.26517117 -0.075316317 1.902324
0.27486056 -0.076463193 1.9050468
0.2972213 -0.077471912 1.9011267
0.30505055 -0.071731038 1.905732
0.3142198 -0.077287845 1.9027411
-0.017160833 -0.065441161 1.9060266
0.057185695 -0.066816494 1.9065781
0.063424855 -0.069276169 1.9029933
0.085143149 -0.063799113 1.9091411
0.094517007 -0.066477843 1.9023329
0.10385315 -0.065136418 1.9053
0.11619622 -0.061004311 1.9084878
0.12564939 -0.063678697 1.9047853
0.13513437 -0.065849043 1.9042405
0.14439873 -0.063503243 1.9042219
0.15045342 -0.060435601 1.9012825
0.1755372 -0.060700763 1.9035823
0.18232857 -0.06765236 1.9056952
0.22317143 -0.066496417 1.9045855
0.23563784 -0.064870358 1.9043941
0.24511883 -0.065025233 1.9040914
0.25780225 -0.064897276 1.9099743
0.26416939 -0.065332159 1.9097375
0.27087012 -0.068761274 1.9091594
0.094342813 -0.059443168 1.9093465
0.11595286 -0.056484632 1.9028182
0.1545008 -0.057723001 1.9056054
0.16582683 -0.055778731 1.9044434
-0.26584452 -0.60175884 1.9155989
-0.25752285 -0.60315555 1.9105461
0.065565147 -0.60188842 1.9166678
0.098973393 -0.60228276 1.9199214
0.10733726 -0.60207897 1.9182396
0.11693788 -0.6042769 1.9197974
0.12366527 -0.60027772 1.9199542
0.2092247 -0.60025734 1.919786
-0.30434215 -0.59376389 1.9159403
-0.29537997 -0.59489447 1.9142178
-0.27537751 -0.59076369 1.9160514
-0.26476833 -0.59795809 1.9132478
-0.25594428 -0.59495807 1.9133607
-0.24515133 -0.5929969 1.9129274
-0.23462979 -0.59185779 1.9147183
-0.22506505 -0.59075856 1.9160092
-0.20709419 -0.59114975 1.9109483
-0.18451166 -0.59175199 1.9159172
-0.17698228 -0.59175062 1.915906
-0.12462252 -0.59013349 1.9108523
-0.094922282 -0.59453005 1.9139735
-0.085424557 -0.5954268 1.9130838
-0.077364385 -0.59185952 1.914042
-0.065655291 -0.59185672 1.9140182
-0.055667967 -0.59441924 1.9130592
-0.045497254 -0.59491646 1.9130177
-0.036746591 -0.59041476 1.9131724
-0.02321434 -0.59391046 1.9130061
-0.019160748 -0.59071368 1.9156388
-0.0035450459 -0.59270889 1.9155238
0.0038657337 -0.59190345 1.913023
0.034525216 -0.59389436 1.9128733
0.041461796 -0.59139276 1.9129534
0.057030842 -0.5933882 1.9128413
0.065614387 -0.5975824 1.9101489
0.074526966 -0.59318721 1.9153261
0.096869767 -0.5916816 1.9153361
0.103484 -0.59887469 1.912523
0.11476648 -0.59680611 1.913413
0.12617077 -0.59554142 1.9167919
0.1781625 -0.59496337 1.9175481
0.18255544 -0.59065992 1.9151951
0.20548832 -0.5916543 1.9151111
0.21352082 -0.59525961 1.9199924
-0.32513052 -0.58076942 1.9164734
-0.31239426 -0.58676696 1.9162273
-0.30438355 -0.58715916 1.9111764
-0.29112312 -0.58896184 1.9136171
-0.28557944 -0.58622962 1.9145571
-0.25564039 -0.58976257 1.9160788
-0.23086077 -0.58815324 1.9110897
-0.22209311 -0.58935428 1.9127103
-0.21409386 -0.58855563 1.9144093
-0.20347112 -0.58555454 1.9145123
-0.19515698 -0.5829525 1.9137648
-0.18289778 -0.5886457 1.9110086
-0.17266543 -0.58701271 1.9127302
-0.16319025 -0.58554697 1.91445
-0.15465733 -0.58374894 1.9161923
-0.14239919 -0.5827468 1.9162115
-0.13488954 -0.58467191 1.9127558
-0.12403218 -0.58858883 1.914683
-0.11702555 -0.58293629 1.913631
-0.10446799 -0.5853315 1.9126724
-0.075630546 -0.5861215 1.9109024
-0.069695413 -0.58911997 1.9107777
-0.030051351 -0.58771771 1.9157832
-0.029760778 -0.58810914 1.9107261
-0.014468193 -0.58534861 1.9128138
-0.0048615932 -0.58710229 1.9107059
0.0052979589 -0.58783859 1.9140186
0.01548596 -0.58414018 1.9127901
0.025243893 -0.58689815 1.9131656
0.047064323 -0.58682704 1.9139606
0.050120145 -0.58508641 1.9106518
0.076263323 -0.58348179 1.911916
0.086387277 -0.58161324 1.9123844
0.093500555 -0.58737934 1.9129927
0.11625528 -0.58706814 1.9104245
0.12325056 -0.58406603 1.9105208
0.13380972 -0.58661819 1.9129286
0.14426154 -0.58836544 1.9128401
0.16564354 -0.5806672 1.9156299
0.17299683 -0.58359021 1.9121199
0.18522628 -0.58592004 1.9120035
0.19418298 -0.58385342 1.9129095
0.2014246 -0.58104622 1.9104691
0.21263629 -0.58865368 1.9152181
-0.34492317 -0.57627094 1.9166553
-0.33380842 -0.57623404 1.9149691
-0.32261527 -0.57836348 1.9131991
-0.31626785 -0.57716012 1.9115598
-0.28408355 -0.57515895 1.9116251
-0.16865468 -0.57914311 1.9113432
-0.15430294 -0.57680672 1.9114064
-0.14661205 -0.57744354 1.9138973
-0.11343589 -0.57843602 1.9137979
0.14984792 -0.57767195 1.9157826
0.15546726 -0.57450324 1.9128449
0.1654807 -0.57905501 1.9106164
0.20605838 -0.57804513 1.9105723
0.21411176 -0.57524765 1.9123559
0.22308247 -0.57259911 1.9132963
0.23079245 -0.57284743 1.9132732
-0.35472634 -0.56546783 1.9145476
-0.3447009 -0.5646612 1.9120365
0.23634185 -0.56324428 1.9127784
0.24709538 -0.56065536 1.9162819
-0.38548094 -0.5547781 1.9175197
-0.37536904 -0.55427909 1.9175465
-0.36458561 -0.55496955 1.9149562
0.23910031 -0.55865753 1.9163754
0.24691063 -0.55853593 1.9112282
0.2566731 -0.55434453 1.9139431
0.26659885 -0.55115461 1.9166324
-0.41493893 -0.54178089 1.9180306
-0.40664396 -0.54278135 1.9179974
-0.39508295 -0.54670048 1.9144167
-0.38352513 -0.5471611 1.9126918
-0.37360948 -0.54616195 1.9127361
0.2663123 -0.54803193 1.9115896
0.2766065 -0.54759169 1.9141723
0.28667283 -0.54459012 1.9142721
0.29595077 -0.54190207 1.913505
-0.42206681 -0.53778183 1.9181882
-0.40732282 -0.53516036 1.9131358
0.29875559 -0.53565407 1.917209
0.30631948 -0.53233969 1.9147279
0.31679487 -0.53265214 1.9173064
0.32456848 -0.53165138 1.9173374
-0.43617475 -0.524786 1.9187098
-0.42587563 -0.52365959 1.9135609
-0.4172675 -0.52516061 1.9135123
0.31335494 -0.52302378 1.9124589
0.32742164 -0.52356553 1.9141663
0.33461672 -0.52583623 1.9149427
0.35527545 -0.5206511 1.9177469
-0.43641907 -0.51815897 1.9137611
0.31826398 -0.519023 1.9126029
0.33909714 -0.51583737 1.9153278
0.3459115 -0.51277596 1.9163147
0.3599546 -0.51101744 1.9128569
0.36290145 -0.51615167 1.9179208
0.37061736 -0.51265204 1.9180548
-0.44797879 -0.50515908 1.9142504
0.34920567 -0.50901878 1.9129428
0.35444301 -0.50801808 1.9129748
0.36480695 -0.50401688 1.9131149
0.37278974 -0.5043354 1.9157428
0.38357317 -0.50683397 1.9156367
0.39139554 -0.50383329 1.9157441
0.37509879 -0.4980157 1.913331
0.3962422 -0.49383441 1.9161282
0.40411943 -0.4903349 1.9162625
0.4121635 -0.49065587 1.9189105
0.41556546 -0.48556027 1.9155477
0.4225499 -0.48065832 1.9193075
-0.46931297 -0.47216094 1.9155024
0.42593274 -0.47356161 1.9160084
0.43577099 -0.47083598 1.9170041
0.44400355 -0.47565898 1.9195001
-0.52437925 -0.46015033 1.9158663
-0.5188911 -0.46015188 1.9158789
0.43566543 -0.46683642 1.9171569
0.44651055 -0.46633643 1.9171758
-0.52367884 -0.45550072 1.9106567
-0.51693666 -0.45315388 1.9161581
-0.47853619 -0.45251107 1.9108548
0.44904196 -0.45701081 1.9148275
0.45720607 -0.45551056 1.9148817
0.46539786 -0.45601043 1.9148612
0.47356659 -0.4535102 1.9149537
0.48175046 -0.45001024 1.9150842
-0.53756636 -0.44482204 1.91372
-0.51532769 -0.44507885 1.9137672
-0.50508529 -0.44338927 1.9129494
-0.49744153 -0.44750655 1.9110042
-0.48864132 -0.44333461 1.9138803
0.48722056 -0.44601011 1.9152343
0.49545521 -0.44451016 1.9152907
0.50372124 -0.4400104 1.9154603
0.53123486 -0.44001105 1.9154658
-0.50789189 -0.43815917 1.9167633
-0.49807063 -0.43533349 1.91417
0.48720956 -0.43735006 1.9100882
0.49548081 -0.43484932 1.9101756
0.50652361 -0.43317923 1.9129732
0.52306724 -0.43418011 1.9129422
0.53676045 -0.43901113 1.9155051
0.54525089 -0.43051165 1.9158273
0.5756712 -0.4300136 1.9158615
0.58291596 -0.43245986 1.9139446
0.50936681 -0.42434609 1.9105424
0.51485562 -0.42917919 1.9131219
0.53426874 -0.42634752 1.9104788
0.54828471 -0.42034602 1.9106932
0.55656898 -0.42251205 1.9161325
0.57314622 -0.42368156 1.9133487
0.58681792 -0.42735109 1.9104712
0.59527326 -0.42468303 1.9133222
0.60638058 -0.42418411 1.9133505
0.61472309 -0.42368433 1.9133716
0.6229707 -0.42468578 1.9133453
0.63409346 -0.42393696 1.9133837
0.64231008 -0.42518818 1.9133456
0.54275697 -0.41934526 1.9107256
0.55681181 -0.41434461 1.9109061
0.56509364 -0.41667905 1.9135906
0.57053673 -0.41934693 1.9107392
0.64850706 -0.41668779 1.9136629
0.65454483 -0.4103533 1.9111269
0.66561007 -0.41202345 1.9166188
0.67351019 -0.41702458 1.9164412
0.68212557 -0.41402605 1.9165648
0.65495485 -0.40602174 1.9168314
0.66259336 -0.40324226 1.9132376
0.67440701 -0.40635505 1.9112904
0.68856072 -0.40502688 1.9169106
0.68419403 -0.39135152 1.9118251
0.69474477 -0.39902791 1.9171439
0.70116597 -0.39102918 1.9174525
0.69321477 -0.38535085 1.9120461
0.70459634 -0.38469106 1.9148896
0.71316504 -0.38403115 1.917732
0.70814824 -0.37735102 1.9123455
0.71674478 -0.37669182 1.915195
0.72285128 -0.37269226 1.9153488
0.72624975 -0.36735094 1.9127208
0.7349562 -0.36653495 1.9184209
0.74644971 -0.36553711 1.9184769
0.7556746 -0.36003906 1.9186981
0.7726233 -0.3603583 1.913043
0.7359497 -0.35734951 1.9130839
0.74462944 -0.3563509 1.9131329
0.75319487 -0.35635278 1.9131474
0.76464367 -0.35644791 1.9160053
0.77671301 -0.35204339 1.919034
0.8025701 -0.35036141 1.9134464
0.85416341 -0.35006154 1.9192592
0.78425962 -0.3452518 1.9154905
0.79729724 -0.34770393 1.9163834
0.80704165 -0.34648749 1.9173979
0.82687771 -0.3420549 1.9195027
0.83548355 -0.34205687 1.9195199
0.84686601 -0.34255975 1.9195244
0.86361635 -0.34506395 1.919466
0.79286242 -0.33870137 1.9166982
0.81593615 -0.33820665 1.9167613
0.82420421 -0.33425868 1.9159602
0.83357775 -0.33536419 1.914029
0.84541625 -0.33336622 1.9141232
0.85361779 -0.33586943 1.9140539
0.86555624 -0.33337158 1.9141665
0.8743763 -0.33306649 1.9199373
0.840321 -0.32936364 1.9142512
0.87545305 -0.32637179 1.9144307
0.88417065 -0.31036857 1.9150047
0.89768982 -0.30036893 1.9153816
0.90275681 -0.3043716 1.9152542
-0.51157904 -0.29542878 1.9157714
-0.50432515 -0.29175189 1.915933
-0.49442059 -0.29086047 1.9157078
-0.47811455 -0.2904008 1.9152277
-0.46608841 -0.29536647 1.9143001
-0.45926803 -0.29374468 1.914253
0.8922261 -0.2983667 1.9154384
0.90955722 -0.29937172 1.9154431
0.91658163 -0.29337162 1.9156671
-0.52508187 -0.28790602 1.9148091
-0.51687026 -0.28985697 1.916544
-0.48430872 -0.28894222 1.9155865
-0.4711051 -0.28775385 1.9152852
-0.45033121 -0.28084427 1.9153544
0.91795278 -0.28566203 1.9100744
0.92598623 -0.28489935 1.9120704
0.93304563 -0.28401908 1.9130957
0.93702006 -0.27937251 1.9161993
0.94332486 -0.27737355 1.9162834
-0.44074461 -0.26384747 1.9102857
-0.43898678 -0.25462312 1.9178152
0.9124772 -0.2559984 1.911963
0.92476273 -0.25086075 1.9121327
0.94721019 -0.25388691 1.9181684
-0.4305177 -0.24327399 1.9154916
-0.41131812 -0.24305516 1.9116173
0.86694664 -0.24699187 1.9139944
0.90247548 -0.24782661 1.912997
0.91720736 -0.24952483 1.912455
0.9216333 -0.24207638 1.9199144
0.93124795 -0.24926914 1.9121159
-0.42284346 -0.23602834 1.9127749
-0.41709191 -0.23954263 1.9121964
-0.40357873 -0.2353024 1.9122201
0.86836076 -0.23073661 1.9155005
0.88974947 -0.23183574 1.9148436
0.84825337 -0.21288681 1.9143292
0.85712528 -0.2186375 1.9101479
0.87459874 -0.21858296 1.9164927
-0.51073337 -0.20261087 1.919355
-0.39239791 -0.2070802 1.9149748
-0.50241554 -0.19278446 1.9137907
-0.37067091 -0.19000489 1.9161476
0.83536649 -0.1953954 1.9129831
-0.38221842 -0.18398823 1.9171947
-0.37653875 -0.18750899 1.9166176
-0.36397034 -0.18738571 1.9162163
0.73486745 -0.18124983 1.9103153
0.76934981 -0.18218449 1.9159911
0.7784608 -0.18942875 1.9150466
0.78356725 -0.18392901 1.9154505
-0.35577789 -0.17505352 1.9141169
0.72562337 -0.17300965 1.9113851
0.73563057 -0.17211512 1.9178534
0.75906873 -0.1710138 1.9173495
0.76620656 -0.17238131 1.9103818
0.81322473 -0.17017189 1.9160216
0.82147551 -0.17446926 1.9153874
-0.34780419 -0.16374898 1.9119515
-0.30991787 -0.1603391 1.9110754
0.71614015 -0.16378304 1.9125601
0.7225222 -0.16220669 1.9191626
0.74435484 -0.16729786 1.9180958
0.75309682 -0.16650711 1.9135262
0.79393798 -0.1633366 1.913873
0.80628836 -0.1697882 1.9162395
-0.34221458 -0.15451379 1.9170266
-0.33363426 -0.15239654 1.9159267
-0.31551373 -0.15580289 1.9117762
-0.30845934 -0.15013358 1.9185058
-0.28605816 -0.15315552 1.9153214
0.53811538 -0.15056674 1.9120762
0.69574356 -0.15150666 1.9143288
0.70614183 -0.15258694 1.9139464
0.78110981 -0.15491784 1.9183464
-0.32370451 -0.14797214 1.9129372
-0.3013581 -0.1434437 1.9158576
-0.29521877 -0.14389917 1.9156042
-0.2890949 -0.14435309 1.9121941
-0.27674019 -0.14526291 1.9179978
0.52965707 -0.14225611 1.9131609
0.5426836 -0.14108375 1.9129277
0.55030298 -0.14543791 1.912273
0.58927655 -0.14092831 1.9182136
0.59571159 -0.14034331 1.9115717
0.60898519 -0.14015663 1.9112345
0.63056016 -0.14627911 1.9100262
0.64910746 -0.14057769 1.9101179
0.67689919 -0.14413047 1.9155657
0.68481016 -0.14845866 1.9149228
0.78387809 -0.14257273 1.9194796
-0.3130191 -0.13844813 1.91995
-0.27601653 -0.13914408 1.9123492
-0.269032 -0.13297434 1.915962
-0.24432838 -0.13377485 1.9150531
-0.23813389 -0.13371845 1.9117047
0.52145743 -0.13492988 1.9141378
0.53560114 -0.13870297 1.9198773
0.54166836 -0.13614082 1.9199704
0.55436075 -0.13398474 1.9133415
0.56453931 -0.13483563 1.9162308
0.57515621 -0.13766012 1.9156609
0.58361804 -0.1360576 1.9145085
0.59531093 -0.13836911 1.9183089
0.60104966 -0.1348258 1.9152508
0.61500263 -0.13759921 1.9113364
0.62535167 -0.13868958 1.9174767
0.63631439 -0.134005 1.9154787
0.64393294 -0.13348648 1.9142476
0.65464836 -0.13605294 1.9169639
0.66400838 -0.13369864 1.9169525
-0.26209822 -0.12680635 1.9164214
-0.25567228 -0.12471599 1.9164448
-0.24989732 -0.12822804 1.9158589
-0.23419967 -0.12631136 1.9155508
-0.22430852 -0.12037834 1.912758
-0.21519913 -0.12233326 1.9153714
-0.20431487 -0.12731664 1.9134051
-0.19650775 -0.12140699 1.9148597
0.43966311 -0.12111743 1.9113603
0.45658964 -0.12363183 1.9170779
0.51226115 -0.12265345 1.9156511
0.6056214 -0.1263532 1.9192381
0.61234713 -0.12675583 1.9190186
0.66595638 -0.12898129 1.9108632
-0.23018095 -0.1178885 1.9194934
-0.2235209 -0.11325713 1.9197869
0.43524185 -0.11446223 1.9153984
0.44560447 -0.11756158 1.9147888
0.45503718 -0.11570182 1.9115031
0.46491265 -0.11582386 1.914432
0.47594455 -0.11651001 1.9129835
0.48431206 -0.11458193 1.914031
0.49452558 -0.11668386 1.910306
0.50416052 -0.11531856 1.9166265
-0.19229029 -0.10943814 1.9191842
-0.18556753 -0.10277943 1.91347
-0.1637775 -0.10031431 1.9130301
0.40397665 -0.1031612 1.914254
0.41427287 -0.10626933 1.9168389
0.42404851 -0.10639752 1.9165471
0.43048894 -0.10582078 1.9196306
0.47004443 -0.10830891 1.9182822
0.4894855 -0.10756718 1.9178249
0.49590027 -0.10698986 1.9177086
-0.1757302 -0.095846146 1.913931
-0.16019094 -0.09445329 1.9197918
-0.15389848 -0.092372149 1.9167087
-0.14472896 -0.093310803 1.9163054
-0.13533661 -0.091205388 1.9162338
-0.12290832 -0.090089604 1.91906
-0.113903 -0.094064303 1.9152122
-0.10450327 -0.091451526 1.9120885
-0.085947707 -0.091797568 1.9114437
-0.076611958 -0.090957329 1.9112351
0.35686189 -0.091270417 1.9136697
0.36952996 -0.090127572 1.910257
0.37603384 -0.090550154 1.9100255
0.3862623 -0.093667276 1.9157543
0.39629275 -0.095788583 1.9152477
-0.12694548 -0.088433303 1.9152341
-0.10407458 -0.084362581 1.9190826
-0.094865292 -0.0847909 1.9156289
-0.085621834 -0.085725814 1.918335
-0.076227129 -0.082864299 1.9183486
-0.063944191 -0.083769187 1.9116381
-0.054624274 -0.082930379 1.911431
-0.042150691 -0.081813321 1.9173698
-0.035961449 -0.0822642 1.9171219
0.28520694 -0.082596473 1.9135081
0.3234854 -0.082175456 1.9124405
0.33034277 -0.085590251 1.9118732
0.34905204 -0.081890576 1.9117342
0.36465141 -0.085866384 1.9150795
0.3756451 -0.087566823 1.9166977
-0.063526258 -0.073657192 1.9189579
-0.054313675 -0.074844137 1.9185307
-0.04621705 -0.078479536 1.9137297
-0.035912573 -0.078222275 1.9113597
-0.026507705 -0.073850706 1.9146519
-0.013066377 -0.07146398 1.9134551
-0.0048951805 -0.077446744 1.9104501
0.0013205111 -0.076887324 1.9103143
0.038707569 -0.076552041 1.9153848
0.044936746 -0.075991407 1.915251
0.051111892 -0.071403451 1.9155645
0.18580472 -0.071377054 1.9114153
0.19527075 -0.071533032 1.9111118
0.21414609 -0.070842415 1.9106197
0.27462903 -0.073468491 1.9148037
0.29116881 -0.079035886 1.9137187
0.31636184 -0.076267391 1.9164305
0.32558542 -0.073424131 1.9196147
0.33489615 -0.072076432 1.9132024
0.34507719 -0.076202974 1.9156125
-0.0047353804 -0.067357987 1.9177753
0.0055562309 -0.06743779 1.9153746
0.013830259 -0.066694975 1.9172599
0.023114257 -0.064851359 1.9171704
0.032429785 -0.068045005 1.9165233
0.057315022 -0.069837235 1.9155434
0.066579886 -0.065979376 1.9156804
0.075895101 -0.065140992 1.9154825
0.085110538 -0.060783617 1.9156775
0.10379199 -0.061118361 1.915061
0.11312667 -0.060782194 1.9148096
0.17565653 -0.060701214 1.916014
0.18535644 -0.064367056 1.9184349
0.19517858 -0.069531098 1.9175828
0.2042139 -0.064683035 1.9147133
0.21997486 -0.065277718 1.9110607
