ply
format ascii 1.0
comment PCL generated
element vertex 1421
property float x
property float y
property float z
element camera 0
property float view_px
property float view_py
property float view_pz
property float x_axisx
property float x_axisy
property float x_axisz
property float y_axisx
property float y_axisy
property float y_axisz
property float z_axisx
property float z_axisy
property float z_axisz
property float focal
property float scalex
property float scaley
property float centerx
property float centery
property int viewportx
property int viewporty
property float k1
property float k2
end_header
0.013488635 -0.28203958 2.5716727
0.64127719 -0.26564434 2.5736783
0.72963214 -0.26095283 2.5772941
0.77561867 -0.26185191 2.5736024
0.78473878 -0.26859298 2.5746346
-0.29693848 -0.25669339 2.5744219
0.54280031 -0.25140432 2.5722249
0.73619926 -0.25935334 2.5769699
0.74502742 -0.25351766 2.5759196
0.75557017 -0.25357693 2.5758364
0.76210892 -0.25198025 2.5755122
0.78501809 -0.25798425 2.5763099
-0.20439972 -0.24821797 2.5733929
0.53362453 -0.24368067 2.5748034
0.54909414 -0.24850711 2.5731854
0.5554328 -0.24464437 2.5744667
0.63614154 -0.24945953 2.5727541
0.71916032 -0.24878806 2.5753584
-0.20928565 -0.23152319 2.5772271
0.51191992 -0.23038077 2.5728171
0.52662444 -0.23390606 2.5769539
0.53575456 -0.23706402 2.574929
0.54209977 -0.23447658 2.5744491
0.56504393 -0.23678671 2.5738692
0.57454491 -0.23364675 2.5748992
0.58076614 -0.23498568 2.5776587
0.61850536 -0.23133473 2.5724006
0.70470381 -0.23446444 2.5764861
-0.37619883 -0.22839643 2.5769036
0.54694098 -0.22496656 2.5728283
0.55695385 -0.22356431 2.5758801
0.56514889 -0.22434008 2.577064
0.57364869 -0.22155461 2.5720479
0.58435833 -0.22361329 2.5749979
0.59406197 -0.22072554 2.5717444
0.60494709 -0.22302574 2.5754023
0.61522669 -0.22285663 2.5752907
0.62411791 -0.22171932 2.5739052
0.63410789 -0.22408207 2.5764382
0.64584559 -0.22136123 2.5747855
0.65703797 -0.22463882 2.5752411
0.66417181 -0.22550926 2.5753279
0.67383158 -0.22287542 2.5748045
0.68427837 -0.2231954 2.5747705
0.69457453 -0.22714096 2.5742176
0.48046774 -0.21127419 2.5726504
0.50575423 -0.21492662 2.5779207
0.55259579 -0.21941625 2.5718598
0.5773353 -0.21752988 2.5758207
0.58663565 -0.21661045 2.5730317
0.59402978 -0.21562375 2.5759842
0.6007508 -0.21008854 2.5794423
0.61292917 -0.21877915 2.576555
0.62822771 -0.21967317 2.5780125
-0.36532629 -0.20019527 2.5722096
-0.33449888 -0.2054868 2.5730524
-0.32507592 -0.20615114 2.5731523
-0.21290138 -0.20210828 2.575583
0.60713011 -0.20912144 2.5797527
-0.36458585 -0.19610146 2.5779424
-0.35472277 -0.19319433 2.5742371
-0.3439486 -0.19827311 2.5740063
-0.33641499 -0.19759901 2.5781703
-0.32382143 -0.19797802 2.5782237
-0.31351703 -0.19149967 2.5707071
0.46760309 -0.1900171 2.5796046
-0.31314528 -0.18945539 2.5767767
-0.23007652 -0.18298768 2.5756123
-0.22397904 -0.1854637 2.5760241
-0.21806529 -0.18997285 2.5767787
-0.30536792 -0.17867295 2.5749509
-0.29528141 -0.17373213 2.5741091
-0.2858302 -0.17389272 2.577311
-0.27736339 -0.17312978 2.5761139
-0.24580355 -0.1726421 2.5760069
-0.23583089 -0.17745599 2.5746846
0.26169068 -0.1724042 2.5751843
0.28721863 -0.17086232 2.5790386
0.30657446 -0.17106584 2.5724306
0.31625766 -0.1715517 2.5722947
-0.29134768 -0.16834258 2.5795538
-0.27218878 -0.16561016 2.5790746
-0.26556712 -0.16198374 2.5721014
-0.25296575 -0.16186082 2.5752435
0.22825432 -0.1604071 2.5756588
0.23513719 -0.16427672 2.574434
0.2444872 -0.16137926 2.5753922
0.25426435 -0.16234916 2.5751071
0.26764196 -0.1675722 2.5767593
0.27421558 -0.16902411 2.5763063
0.2835924 -0.16574188 2.5740902
0.29672748 -0.16864601 2.5731869
0.3252373 -0.16236837 2.5752654
0.33802035 -0.1604376 2.5759103
-0.26474559 -0.15586595 2.5774
-0.25870854 -0.15733638 2.5744796
0.32487693 -0.15676138 2.5704439
0.33131889 -0.15666535 2.5737963
0.34435928 -0.15850513 2.5765431
0.3499358 -0.14322574 2.5748017
0.36931428 -0.1403279 2.5757549
0.36573431 -0.13374367 2.5711598
0.27675536 -0.12124743 2.570174
0.28327537 -0.12166905 2.5702133
0.35566145 -0.12968616 2.5791252
0.27615908 -0.11525749 2.5755129
0.28165197 -0.10669694 2.5739951
0.2836726 -0.095931277 2.5752664
0.42910188 -0.099475846 2.571902
0.43547767 -0.098902017 2.5717609
0.28555012 -0.084170043 2.5763321
0.42019069 -0.0851596 2.5757761
0.43357149 -0.087988526 2.5761943
0.29032764 -0.070632681 2.5739148
0.28944361 -0.06265188 2.5787289
0.29590592 -0.064083964 2.5758405
0.30819315 -0.060964406 2.5783386
0.39751378 -0.064517632 2.5753884
0.404181 -0.066435337 2.5725574
0.41114113 -0.069841906 2.5731187
0.30365944 -0.058680054 2.5738058
0.31562412 -0.053570155 2.572839
0.32594627 -0.052303229 2.5704944
0.33594066 -0.055943657 2.574194
0.34494603 -0.052612521 2.5735536
0.35091642 -0.050061472 2.5761664
0.36367267 -0.050929766 2.5762548
0.37357676 -0.053816713 2.5736122
0.38337469 -0.055707581 2.573894
0.39018866 -0.058623329 2.5743742
0.42144862 -0.055807069 2.57057
0.31937739 -0.049875215 2.576293
0.32559884 -0.049315277 2.5761616
0.35714424 -0.049500957 2.5760331
-0.4768132 -0.60293907 2.5841913
-0.45872188 -0.60147351 2.5845318
-0.50401211 -0.59212029 2.5860991
-0.49564034 -0.59290493 2.5884287
-0.48840502 -0.59592873 2.5843685
-0.47097433 -0.59861636 2.5858226
-0.46558303 -0.5986082 2.5857551
-0.45309985 -0.59667301 2.5863657
-0.44403586 -0.59825993 2.5828819
-0.43509388 -0.59465361 2.584209
-0.51756024 -0.58175564 2.5876088
-0.50355113 -0.58748466 2.5851498
-0.49912167 -0.58555931 2.58584
-0.42441067 -0.58321816 2.5858629
-0.41835576 -0.5838508 2.5800326
-0.53253376 -0.57281953 2.5801859
-0.52006185 -0.57632053 2.5842073
-0.41505468 -0.57606983 2.584902
-0.54936683 -0.56229424 2.5845156
-0.41185403 -0.56370652 2.5878787
-0.4079009 -0.56391239 2.5840533
-0.61742938 -0.55026799 2.5847487
-0.40323037 -0.55825758 2.5843627
-0.62178898 -0.54193753 2.5823228
-0.4040803 -0.54450369 2.5869188
-0.61531675 -0.5326165 2.5800126
-0.56853807 -0.53606182 2.5835731
-0.62187201 -0.52704835 2.5879436
-0.61403513 -0.52492684 2.5828719
-0.60657889 -0.52298939 2.5834622
-0.59944516 -0.52090442 2.5869808
-0.40275913 -0.52897763 2.5872846
-0.59538931 -0.51206529 2.5845013
-0.5834533 -0.51300335 2.5839536
-0.59633279 -0.50567496 2.5897927
-0.69885814 -0.45538586 2.5809953
-0.46468103 -0.41379249 2.5868642
-0.45445114 -0.41388014 2.5868559
-0.44384384 -0.41191724 2.5865235
-0.43430772 -0.4161002 2.5871642
-0.40515548 -0.4119947 2.5876706
-0.39894885 -0.41295457 2.587301
-0.47278997 -0.40242344 2.5850873
-0.42560789 -0.40523484 2.5854306
-0.40767276 -0.40553045 2.5840633
0.070034117 -0.40599945 2.5842693
-0.54524302 -0.39281207 2.5837462
-0.53793776 -0.39013806 2.5833049
-0.52464521 -0.39095834 2.5834002
-0.51455474 -0.3910585 2.583391
-0.50445819 -0.39115816 2.5833821
-0.49515477 -0.39536196 2.5840235
-0.48522654 -0.39648503 2.5841777
-0.47911564 -0.39996797 2.5847139
-0.64670461 -0.38329709 2.5894103
-0.53107727 -0.38952062 2.5831897
-0.40354958 -0.38396499 2.5843303
-0.39270315 -0.38593075 2.5881164
-0.38335967 -0.38438311 2.5836356
-0.37385076 -0.3813771 2.5836987
-0.35650334 -0.38089317 2.5838509
-0.65492702 -0.37647521 2.5883458
-0.39427605 -0.37429026 2.5832458
-0.37172884 -0.37980193 2.5872793
-0.36431703 -0.3783704 2.5837572
-0.35495663 -0.37787479 2.587956
-0.34948874 -0.37620974 2.5825059
-0.33422011 -0.37043259 2.584569
-0.32410118 -0.37380224 2.5833631
-0.31625301 -0.37139559 2.5842271
-0.65793419 -0.36263052 2.586139
-0.41139233 -0.36161548 2.5853634
-0.34436977 -0.36706305 2.5857773
-0.31187671 -0.36754495 2.5856085
-0.30711406 -0.36430401 2.583734
0.076253936 -0.360075 2.5839751
-0.66141391 -0.35084468 2.5842643
-0.30397859 -0.3570829 2.5863159
-0.29971868 -0.3523955 2.5849392
0.042545378 -0.35349298 2.5857048
0.6860736 -0.35096645 2.5814362
0.69507372 -0.3500005 2.581754
0.70685065 -0.35095993 2.5813825
-0.29597259 -0.346618 2.5869977
-0.0023880701 -0.34617206 2.586082
0.0052396804 -0.34493414 2.5855389
0.010163933 -0.34024635 2.5841579
0.025241688 -0.34192896 2.5897527
0.034351766 -0.34289646 2.5894477
0.065456614 -0.3444106 2.5815015
0.67466044 -0.34567177 2.5833366
0.68966764 -0.34493327 2.5896759
0.69543451 -0.3468577 2.588975
0.70314389 -0.34886554 2.5862033
0.7161873 -0.34721819 2.5857344
0.72519124 -0.34613752 2.5830338
0.7351343 -0.34604988 2.5850737
0.74372411 -0.34035105 2.5850217
0.76148105 -0.34130746 2.5846252
-0.40019256 -0.33439314 2.5809717
-0.29327434 -0.33723673 2.5841908
-0.28910351 -0.33242059 2.5858958
-0.0087754726 -0.3354204 2.5857818
0.015450358 -0.33735931 2.5852022
0.023834333 -0.33495557 2.5860896
0.66670758 -0.33375764 2.5844951
0.74980366 -0.33938533 2.5853436
0.75600928 -0.33745661 2.586005
0.76832461 -0.33456203 2.5869868
0.77424455 -0.33468428 2.5838523
-0.39841595 -0.32415691 2.5860758
-0.29439825 -0.32544002 2.582175
-0.017046988 -0.32506657 2.5832386
0.065185063 -0.32427639 2.5851493
0.075632602 -0.32787326 2.5856993
0.66123271 -0.32713819 2.5837538
0.78334743 -0.32637179 2.5857182
-0.025579453 -0.3144632 2.5869212
0.054736473 -0.31513736 2.5871124
0.65602142 -0.31666237 2.5843453
0.79541647 -0.31131339 2.5857987
-0.03299427 -0.30867779 2.5889184
0.034054555 -0.30439568 2.585422
0.044296652 -0.3059915 2.5822356
0.064979896 -0.30816913 2.5893548
0.013545498 -0.29212299 2.5800695
0.024939889 -0.29580674 2.5851612
0.65161955 -0.29461446 2.5889187
0.80412894 -0.29263419 2.589159
0.013646647 -0.28506228 2.5856748
-0.20689616 -0.27667943 2.5847194
0.78960305 -0.27270165 2.5856264
0.79771447 -0.27600455 2.5861154
0.64749491 -0.26615164 2.5861521
0.73408705 -0.26408678 2.5846457
0.78001153 -0.26449057 2.5843184
-0.21109684 -0.25185734 2.5872109
0.53995824 -0.25685677 2.5849981
0.71325511 -0.25235662 2.589668
0.72170907 -0.25763914 2.5836596
0.74552464 -0.25499451 2.5864294
0.76231915 -0.25247478 2.585855
0.77078611 -0.25725797 2.5865998
0.54509473 -0.24832857 2.5835168
0.70424414 -0.24510147 2.5884943
0.71073079 -0.24350333 2.5813587
0.74704206 -0.2483011 2.5818608
0.75415218 -0.24866959 2.5818617
0.53692818 -0.23573731 2.5838594
0.54708821 -0.23574984 2.5825367
0.55565679 -0.23766625 2.5831976
0.56505662 -0.23718256 2.5833516
0.5744614 -0.23669875 2.5835044
0.58384979 -0.23669761 2.5834942
0.68634945 -0.23057994 2.5861433
0.6950053 -0.23685887 2.5871525
0.5183149 -0.22147334 2.5822065
0.53077227 -0.22994632 2.5858085
0.56507856 -0.2288917 2.5868118
0.57419014 -0.22353435 2.5858219
0.5839386 -0.2236238 2.5829377
0.59364015 -0.22800922 2.5864007
0.60030395 -0.22028601 2.5889866
0.61911088 -0.22146161 2.5821097
0.62403804 -0.22260542 2.5846713
0.63766932 -0.22703569 2.5866578
0.6562047 -0.22119418 2.5847745
0.66345847 -0.22255768 2.5849502
0.67449135 -0.22509368 2.5852966
-0.37346011 -0.21202375 2.5806365
0.58627754 -0.21639687 2.5845025
0.59380007 -0.21720269 2.5842178
0.60387433 -0.2150747 2.5850241
0.61501163 -0.21806876 2.5870395
0.62802613 -0.21868895 2.5845697
0.63334537 -0.21821675 2.5869994
0.64546949 -0.21963969 2.5845938
-0.37270856 -0.20792896 2.5863874
0.49947667 -0.20526797 2.5811107
-0.36465931 -0.19712202 2.5845301
-0.35475039 -0.19421378 2.5840254
-0.34562689 -0.19641735 2.5843976
-0.33632529 -0.19759673 2.5845942
-0.32344395 -0.19593336 2.5843017
-0.21189213 -0.19345894 2.5870271
0.51223296 -0.19926563 2.5896049
-0.31291461 -0.18843222 2.58301
-0.30643475 -0.18785483 2.5893128
-0.23602331 -0.18050674 2.5848074
-0.22681555 -0.18345912 2.5853133
-0.21722865 -0.18284836 2.5852027
0.28482035 -0.18109056 2.5888367
-0.30541706 -0.1796913 2.5815074
-0.29623708 -0.17416377 2.5848043
-0.28543583 -0.17184922 2.5865197
-0.24378739 -0.1744848 2.5848343
0.26468664 -0.17114078 2.5854802
0.2748335 -0.17645784 2.5837655
0.28432682 -0.17501128 2.5842624
0.46097001 -0.17069256 2.5859268
0.48674801 -0.17918889 2.5897212
-0.27495921 -0.1633445 2.5850358
-0.2562376 -0.16418034 2.5851748
0.23472399 -0.16118081 2.582042
0.24548765 -0.16169846 2.586313
0.25439784 -0.16485722 2.5875099
0.2804344 -0.16699392 2.5802772
0.29519531 -0.16403328 2.5834758
0.30577773 -0.16207081 2.5852408
0.3156831 -0.16497214 2.5843155
0.32525569 -0.16352485 2.5848064
0.33178332 -0.16487812 2.5876822
-0.26465711 -0.15586369 2.58373
0.2409658 -0.15924977 2.5826864
0.25388277 -0.15925393 2.5827208
0.29896557 -0.15810661 2.5898306
0.33450562 -0.15685904 2.5836816
0.34400153 -0.15347822 2.584796
0.2266148 -0.14668004 2.5867243
0.34971136 -0.14013575 2.5824585
0.36947495 -0.14400665 2.5812442
0.34954572 -0.13801467 2.5898221
0.35533553 -0.12466693 2.5874412
0.36189008 -0.12388419 2.5809834
0.26975277 -0.11483434 2.585006
0.27589104 -0.11226254 2.5813458
0.27463669 -0.10028193 2.585552
0.41497368 -0.091690131 2.5896213
0.27961159 -0.087233819 2.5863276
0.40728644 -0.084315985 2.5883186
0.41322684 -0.08175905 2.5815182
0.42369545 -0.086365096 2.5854445
0.28414279 -0.071197867 2.5834074
0.39947808 -0.075944319 2.5868342
0.40573359 -0.075375654 2.5804141
0.42569989 -0.079628259 2.5810614
0.3085016 -0.062958866 2.5849214
0.39091092 -0.062599741 2.584446
0.28903028 -0.058661677 2.5842237
0.2953895 -0.059097532 2.5842755
0.30175394 -0.059532918 2.584327
0.31709975 -0.056135278 2.5836377
0.32401565 -0.052491874 2.5870755
0.33553898 -0.052459225 2.5828805
0.35340527 -0.052197516 2.5848138
0.36432731 -0.054909676 2.5831835
0.37376809 -0.054564089 2.5830712
0.3838484 -0.058193944 2.5836804
0.4143059 -0.050417118 2.5883083
0.33503866 -0.04847683 2.5883484
0.34448379 -0.04863216 2.5852361
-0.48134315 -0.60022777 2.5908289
-0.47501695 -0.60276902 2.5952199
-0.49278536 -0.59433806 2.5961084
-0.48660481 -0.59576428 2.5954428
-0.47504863 -0.59553194 2.5962892
-0.46454611 -0.59466428 2.5946562
-0.45526573 -0.59355921 2.5958984
-0.44472575 -0.59306562 2.5959699
-0.43774927 -0.59121984 2.5993893
-0.51707727 -0.58059025 2.5973327
-0.5095976 -0.58717752 2.5909028
-0.43537498 -0.58419114 2.5952713
-0.42533949 -0.58598852 2.5921435
-0.41777667 -0.58331853 2.5949783
-0.41388458 -0.57506084 2.5945334
-0.40807039 -0.57345963 2.5978994
-0.53394985 -0.5616461 2.5957437
-0.41098136 -0.56626809 2.5924373
-0.40672022 -0.56418985 2.5960112
-0.61939573 -0.55830312 2.5930262
-0.53698194 -0.55524564 2.5926642
-0.40487507 -0.55587333 2.593699
-0.62545848 -0.5471037 2.5917935
-0.61927944 -0.54837722 2.5940123
-0.58402157 -0.54028898 2.5935848
-0.40323752 -0.54739738 2.5942168
-0.62100625 -0.53476179 2.5935664
-0.59291899 -0.53454882 2.5959539
-0.58321011 -0.53164899 2.5968926
-0.55246484 -0.53704631 2.5999827
-0.61728668 -0.52456123 2.5964317
-0.59485465 -0.52525145 2.5938373
-0.40623569 -0.52852505 2.5959826
-0.61476004 -0.51812947 2.5930927
-0.60742378 -0.51774436 2.5940597
-0.59368956 -0.51675564 2.5941906
-0.5849278 -0.51755035 2.5966039
-0.59696257 -0.50538397 2.5956824
-0.60234606 -0.48455054 2.5978432
-0.71215475 -0.43397123 2.5949388
-0.57404935 -0.43170756 2.5969565
-0.56526339 -0.42285079 2.5955133
-0.61855674 -0.41857302 2.5949738
-0.5536195 -0.41625768 2.5944266
-0.54312003 -0.41480866 2.5941689
-0.53662837 -0.41624078 2.5943835
-0.52862561 -0.41047946 2.5934405
-0.46149194 -0.41552824 2.5941126
-0.45454046 -0.41490263 2.5939991
-0.44366151 -0.41140288 2.5934167
-0.43385893 -0.41404954 2.5938239
-0.64146781 -0.40249267 2.5993683
-0.63433766 -0.40084279 2.5990779
-0.62432897 -0.40094721 2.5956144
-0.524266 -0.40605718 2.5961876
-0.51374501 -0.40409893 2.5923836
-0.50663388 -0.40245077 2.5921037
-0.49623191 -0.40151775 2.5954001
-0.4771423 -0.40215126 2.5943091
-0.46687573 -0.40794992 2.596384
-0.43252796 -0.40687835 2.5996351
-0.42481717 -0.40113705 2.5917342
-0.64571202 -0.39279217 2.597801
-0.63578486 -0.39290085 2.5909128
-0.62602478 -0.39403895 2.5910637
-0.51563454 -0.39721751 2.5981998
-0.50551003 -0.39731452 2.5981965
-0.49562567 -0.39843842 2.5948977
-0.48548239 -0.39853373 2.5948949
-0.47183093 -0.39831668 2.5983002
-0.42333174 -0.3929435 2.5973456
-0.39985478 -0.39826086 2.5986781
-0.4044092 -0.3822622 2.5965266
-0.3956418 -0.38663185 2.5939004
-0.38445467 -0.38542709 2.5943201
-0.37447035 -0.38133591 2.5957911
-0.36469159 -0.38373944 2.5948992
-0.35943866 -0.38229555 2.5954204
-0.66680855 -0.37150118 2.594403
-0.65457678 -0.37544167 2.5950029
-0.64910579 -0.3799904 2.595726
-0.41572088 -0.37377903 2.5956016
-0.35535395 -0.3776148 2.5940976
-0.33345816 -0.37341291 2.5925822
-0.32627258 -0.37169194 2.5921965
-0.65975046 -0.36985779 2.594111
-0.35261205 -0.36956489 2.593986
-0.34456795 -0.36763957 2.5946767
-0.32361639 -0.36895412 2.5972342
-0.31715301 -0.36495605 2.5946381
-0.30821252 -0.36247522 2.5935097
-0.0079796314 -0.36546785 2.5933347
-0.41061395 -0.35751864 2.5915418
-0.40966457 -0.35239798 2.5975277
-0.30203953 -0.35261521 2.5950377
-0.010993361 -0.35224831 2.5920115
-0.005544126 -0.35032603 2.5927265
-0.29740578 -0.3434779 2.5942447
-0.27854913 -0.34708029 2.5991023
-0.0016551316 -0.34166446 2.5958576
0.0045011342 -0.34263009 2.5955372
0.014047638 -0.34552285 2.5945392
0.025371045 -0.34312209 2.5954518
0.68415523 -0.34012014 2.5914056
0.70801216 -0.34082511 2.5972216
0.71685815 -0.34178489 2.5968511
0.7257036 -0.34238863 2.5935454
0.73178244 -0.34106758 2.5909333
0.74947894 -0.34286103 2.593298
-0.29326308 -0.3383078 2.5930276
-0.28802383 -0.33674037 2.5966716
-0.015846789 -0.33131614 2.5933578
0.0099700093 -0.33999527 2.5903754
0.015908301 -0.3399983 2.5904005
0.036411613 -0.33927733 2.5968823
0.67578948 -0.33338219 2.5938277
0.69332433 -0.33842346 2.5981247
0.70214182 -0.33986449 2.5975831
0.73530281 -0.33696538 2.598527
0.74392807 -0.33949357 2.594523
0.75628376 -0.33611915 2.5956898
0.76557207 -0.33335131 2.593574
-0.29051298 -0.32928386 2.5931687
0.075669423 -0.32585979 2.5922551
0.66777313 -0.32182896 2.5979643
0.77518535 -0.3285327 2.5952587
0.7822355 -0.32082632 2.597981
-0.020700812 -0.31036979 2.5945907
0.044495601 -0.31430084 2.5938594
0.054893821 -0.31765327 2.5978165
0.065138176 -0.31269819 2.5969508
0.075552061 -0.31680223 2.5976114
0.66215217 -0.3162953 2.5937495
0.78840512 -0.3191416 2.5923691
-0.028346002 -0.30362332 2.5969436
0.034184039 -0.30540138 2.595808
0.79689854 -0.30179945 2.5984702
-0.39318216 -0.29345053 2.5943913
-0.042583585 -0.29421946 2.5939486
0.027323276 -0.29795295 2.5945702
0.65738964 -0.29992086 2.5995474
0.80424768 -0.29239863 2.5955024
-0.044275761 -0.28674367 2.590287
0.020505264 -0.28243449 2.5919712
0.6522575 -0.28666916 2.597959
0.79085648 -0.27662802 2.5931938
-0.38871649 -0.26684001 2.5964952
0.71577942 -0.2612097 2.5980253
0.78696036 -0.26387754 2.5979095
-0.21129076 -0.25490528 2.5943384
0.64852619 -0.25242451 2.5972152
0.70838249 -0.25985909 2.5978489
0.72376579 -0.2564539 2.5925677
0.73571634 -0.25739279 2.5903475
0.74585176 -0.25597942 2.5934396
0.75625908 -0.25554693 2.5932775
0.77737236 -0.25566316 2.5931234
0.57871878 -0.24329792 2.5959618
0.68987119 -0.24337642 2.5951169
0.6985622 -0.24965221 2.596144
0.72582269 -0.24719867 2.595495
0.73235136 -0.24560264 2.5951629
0.74059349 -0.24990222 2.5958474
0.76446307 -0.24775375 2.5952759
-0.20948967 -0.23660064 2.5977631
0.56529689 -0.23069221 2.5919621
0.57471257 -0.23069109 2.5919528
0.58452797 -0.23357196 2.5931635
0.59353393 -0.23143718 2.5981081
0.64353824 -0.23357362 2.5908713
0.65860188 -0.23006493 2.5997968
0.68068743 -0.23512885 2.593749
0.55596673 -0.22779849 2.5929511
0.58449566 -0.2264111 2.595593
0.59358704 -0.2297236 2.5922577
0.60401148 -0.22450654 2.5980742
0.61557919 -0.22384846 2.5922875
0.62434787 -0.22205496 2.5963943
0.63533592 -0.22005975 2.5981987
0.64641571 -0.2230926 2.5952876
0.65353549 -0.22396421 2.5953879
0.66376096 -0.22354494 2.5918593
0.67207599 -0.22884613 2.5927198
-0.37954417 -0.21157472 2.5934665
0.52473342 -0.21450277 2.5909994
0.5342797 -0.21187931 2.5983608
0.54681671 -0.21670285 2.5967181
0.5939666 -0.21974409 2.5917349
0.60547543 -0.21830647 2.5924025
0.61616087 -0.21910572 2.5958228
0.6267817 -0.21743949 2.593791
0.63490325 -0.21681941 2.5945609
0.64202172 -0.21945196 2.5913153
-0.37146062 -0.20076469 2.5915816
-0.37365693 -0.19542274 2.5970597
-0.36411837 -0.1945613 2.5937033
-0.35469544 -0.19472164 2.59373
-0.34541494 -0.19590285 2.5939345
-0.33626705 -0.19810431 2.5943184
-0.32643682 -0.19570717 2.5938959
-0.31752929 -0.19221598 2.592211
0.51865613 -0.19519831 2.5974874
-0.31287602 -0.18944846 2.5959992
-0.30606815 -0.18581098 2.595356
-0.2991401 -0.18115449 2.5945325
-0.22319621 -0.18036941 2.5943878
-0.21078144 -0.18328512 2.5949008
0.26592177 -0.18512827 2.5972848
0.27555877 -0.18561399 2.5971479
0.28527361 -0.18668352 2.5935407
0.31358203 -0.1808978 2.5955329
0.32013574 -0.18283059 2.594903
0.49637321 -0.18140292 2.5955567
0.50595045 -0.18767886 2.5934653
-0.29223287 -0.17649989 2.5937092
-0.28551739 -0.17388465 2.5996187
-0.26006892 -0.17159438 2.5992129
-0.23530222 -0.17541206 2.596705
-0.22938587 -0.17890985 2.5941308
-0.21599089 -0.17165476 2.5928459
0.24864444 -0.17228785 2.5949435
0.25531995 -0.17470424 2.5941596
0.26518202 -0.17673846 2.590224
0.27484927 -0.17722428 2.5900886
0.29393464 -0.17568159 2.5939353
0.30646646 -0.17182191 2.5952439
0.3164773 -0.1762697 2.5905004
0.32622033 -0.17810369 2.5931993
0.3326768 -0.17897137 2.5962136
0.48030803 -0.17435934 2.5913153
-0.28495595 -0.16878697 2.5923455
-0.27524456 -0.1664007 2.5919232
-0.26578921 -0.16605385 2.5918612
-0.25510535 -0.16442211 2.593689
-0.24380715 -0.16659909 2.5951376
0.24153571 -0.16600814 2.5970061
0.29975188 -0.16844004 2.5963511
0.3319959 -0.16854599 2.593082
0.23399672 -0.15557516 2.5938077
0.33776009 -0.15801913 2.5932527
0.34386444 -0.15222448 2.5951715
0.22519669 -0.13489515 2.5972369
0.34961504 -0.13976043 2.5959356
0.3551217 -0.12158462 2.5951612
0.3614203 -0.11596631 2.5902481
0.26898932 -0.10684551 2.5930898
0.41672078 -0.10162124 2.5977776
0.26830184 -0.099855252 2.5981328
0.27434319 -0.09678784 2.5943866
0.28020614 -0.09172602 2.5965836
0.4098413 -0.099215582 2.597369
0.40100688 -0.084886834 2.5947626
0.28454742 -0.07369341 2.5963521
0.38633257 -0.073105715 2.5989263
0.2894991 -0.061655484 2.5971992
0.29394165 -0.0639406 2.5934603
0.3053031 -0.061994717 2.5940907
0.3146103 -0.060403649 2.5968647
0.35890239 -0.060447529 2.5935655
0.36568585 -0.063366055 2.5940804
0.37547195 -0.065005958 2.5943401
0.38485217 -0.064158849 2.5910087
0.39209229 -0.06955687 2.5919707
0.31429696 -0.058409628 2.5902791
0.3233161 -0.054578781 2.5957348
0.35151112 -0.053049512 2.595324
0.33495164 -0.047481913 2.5943525
0.34385186 -0.043656178 2.5935948
-0.47216761 -0.60978055 2.6033401
-0.4666377 -0.60606879 2.6058679
-0.45508158 -0.60113716 2.6066191
-0.48551869 -0.5938471 2.6044888
-0.47066516 -0.59030968 2.600167
-0.46550536 -0.59434599 2.6058419
-0.4537169 -0.59624285 2.6049163
-0.44533005 -0.59338462 2.6068892
-0.43736255 -0.59313428 2.6068954
-0.50096488 -0.58525544 2.6081953
-0.49793538 -0.58540797 2.6053097
-0.43395922 -0.58291543 2.6054657
-0.42629236 -0.58162773 2.6031299
-0.41748968 -0.58305395 2.6024647
-0.51094985 -0.57600862 2.6064959
-0.50984454 -0.57727754 2.6003902
-0.42822534 -0.5784418 2.6099954
-0.41101694 -0.57969469 2.6037574
-0.4074533 -0.57586026 2.6052725
-0.52556801 -0.5693295 2.6094069
-0.40635404 -0.56643903 2.6062784
-0.62457538 -0.55033612 2.6018853
-0.40631771 -0.5542959 2.6055489
-0.6280719 -0.54524815 2.6096354
-0.4050771 -0.5442152 2.6011133
-0.6235919 -0.53738153 2.6068921
-0.61510098 -0.5347572 2.6043015
-0.58843493 -0.53328061 2.6020646
-0.40916818 -0.53624648 2.6099598
-0.62117517 -0.52501327 2.6001606
-0.61116534 -0.52292281 2.6036322
-0.58813512 -0.52368498 2.6057758
-0.40718666 -0.52759308 2.6048684
-0.61166465 -0.51155299 2.6051371
-0.58715594 -0.51438093 2.6036057
-0.60190475 -0.48618558 2.6030452
-0.57810718 -0.45022738 2.606982
-0.61946726 -0.42269415 2.6025965
-0.56653917 -0.42902139 2.6034961
-0.55498314 -0.42294025 2.6024783
-0.54425412 -0.42097256 2.6091073
-0.45545635 -0.42104715 2.6089809
-0.44866952 -0.42144454 2.6090381
-0.62530267 -0.41919264 2.6089904
-0.54390693 -0.4189187 2.6017985
-0.53648996 -0.41623783 2.6048279
-0.46050644 -0.41091198 2.6038208
-0.45499861 -0.41797492 2.6014822
-0.44312406 -0.41556403 2.6034019
-0.6763078 -0.40765101 2.607228
-0.63528258 -0.40496698 2.6066604
-0.62576115 -0.40713173 2.6035314
-0.52413273 -0.40605456 2.6065969
-0.50603551 -0.4003928 2.6056275
-0.47212172 -0.40036544 2.6055715
-0.4663536 -0.40589586 2.6064811
-0.43225577 -0.40585193 2.6064286
-0.64641696 -0.39588657 2.6051879
-0.63956201 -0.39526963 2.6050661
-0.5120976 -0.39690542 2.6050584
-0.49558723 -0.3989484 2.605371
-0.48454967 -0.3944262 2.604604
-0.47863835 -0.39893556 2.6053436
-0.66237926 -0.38018298 2.6026363
-0.65296096 -0.38235998 2.6029675
-0.42184681 -0.38475022 2.6029131
-0.40359837 -0.38322741 2.6072516
-0.37801743 -0.38094649 2.6050107
-0.36693317 -0.38682348 2.6058407
0.083963357 -0.38499025 2.6050231
-0.39452446 -0.37662375 2.6066403
-0.38591188 -0.37614077 2.6067991
-0.36083227 -0.37998185 2.6053391
-0.35428762 -0.37410039 2.6044698
-0.34332052 -0.37217587 2.6051672
-0.33403409 -0.37337753 2.6047215
-0.32949305 -0.3703641 2.6088667
0.088295221 -0.37916386 2.6068776
0.098718822 -0.37244004 2.6094172
-0.41914669 -0.36938953 2.6072261
-0.3273063 -0.36773542 2.6037555
-0.31630492 -0.36301127 2.603457
-0.30894274 -0.36196509 2.605875
-0.30420408 -0.35538441 2.6046247
-0.28931195 -0.35138738 2.6097715
0.043236762 -0.3585023 2.6021693
-0.2943418 -0.3447876 2.6029768
-0.28552824 -0.34490466 2.6060154
-0.27994841 -0.34394348 2.6063726
-0.0068699569 -0.34561545 2.6035905
0.017256916 -0.34719723 2.6000667
0.026007315 -0.34230709 2.6039221
0.040334642 -0.34432214 2.6012099
0.08315289 -0.34535751 2.6024032
0.72300768 -0.34092638 2.6063437
0.74927282 -0.34537205 2.6015828
-0.28730744 -0.33938012 2.6018739
-0.0040994585 -0.33179021 2.6055574
0.0091441572 -0.33757052 2.6035204
0.015334904 -0.33924928 2.6090815
0.033061162 -0.33842048 2.6063881
0.68502653 -0.33120623 2.6007397
0.69690812 -0.33288062 2.6062646
0.70579743 -0.33383998 2.6058922
0.71467751 -0.33479926 2.6055195
0.72316664 -0.33948332 2.6068687
0.73573315 -0.33382964 2.6058073
0.74401605 -0.33960032 2.6036906
0.7531997 -0.33802888 2.6073008
0.76293015 -0.3311792 2.6005166
0.00075602531 -0.32698128 2.6073217
0.08266373 -0.32221791 2.6053767
0.67988884 -0.32158142 2.6042106
0.69118977 -0.3299953 2.6073251
0.76353055 -0.32708299 2.608161
0.7701124 -0.32239088 2.6067443
0.044645049 -0.31656522 2.6045105
0.054934174 -0.31463102 2.6041529
0.061853498 -0.31703305 2.6045463
0.075500339 -0.31076348 2.6034348
0.674613 -0.31291935 2.6073356
0.77645957 -0.31962252 2.6046233
0.78327221 -0.31384408 2.6066761
-0.028992951 -0.30218413 2.6099327
0.034278229 -0.30741566 2.6029689
0.065189585 -0.30866972 2.6065202
0.65078706 -0.30738899 2.603148
0.66299373 -0.30642298 2.6034653
0.79000294 -0.30830485 2.602417
-0.034042448 -0.29290718 2.6038413
0.027406231 -0.29795158 2.6013639
0.7982533 -0.2928946 2.6078808
0.80085409 -0.28581697 2.60163
-0.04708147 -0.27664295 2.6064055
0.79906178 -0.27993494 2.6075387
0.80689251 -0.27482373 2.6079721
0.69499898 -0.26207799 2.6051958
0.70869797 -0.26084504 2.6048701
0.75778174 -0.26046032 2.6044128
0.78700161 -0.26388001 2.6047857
0.59601086 -0.25787985 2.6051984
0.68549871 -0.25285047 2.6036322
0.70103788 -0.25850967 2.6045153
0.71471864 -0.25727835 2.6041896
0.72032517 -0.25223976 2.6066651
0.75277215 -0.25536901 2.6069667
0.77657461 -0.25272569 2.6097322
-0.061188817 -0.24336004 2.6053071
0.62775552 -0.24494627 2.6094604
0.64900082 -0.24641863 2.6056778
0.65569627 -0.24545632 2.6093469
0.67552733 -0.24164873 2.6017218
0.7396524 -0.24646723 2.6054819
0.76370931 -0.24505818 2.6050386
0.77413189 -0.24487317 2.6015151
0.59819317 -0.23751828 2.6015716
0.63258427 -0.23644568 2.6078942
0.64638132 -0.23621209 2.6077507
0.66613913 -0.23241112 2.6001551
0.72552913 -0.23782475 2.6051791
0.73040545 -0.23872612 2.6007731
-0.20826167 -0.22490399 2.6055169
0.5688045 -0.22083011 2.6017623
0.5750742 -0.22179385 2.6014264
0.58771563 -0.22157982 2.6079473
0.59393084 -0.22350746 2.6072748
0.60033447 -0.22082564 2.6017253
0.61706638 -0.22977003 2.6000581
0.63786572 -0.22992072 2.6066804
0.64446217 -0.220817 2.6016541
0.55641979 -0.21311498 2.6044104
0.56256044 -0.21890159 2.6024275
0.58152878 -0.21868794 2.6089516
0.60476381 -0.21682614 2.6074038
0.61636937 -0.21599986 2.6033502
0.62584597 -0.21599802 2.6033354
0.63535368 -0.21551381 2.6034839
0.64465076 -0.21867637 2.6088562
-0.38425595 -0.20293596 2.6048133
-0.37322998 -0.19337347 2.6030984
-0.36471605 -0.19916081 2.6041384
-0.35503599 -0.19778556 2.6038933
-0.34551185 -0.19743252 2.6038318
-0.33545023 -0.19375731 2.6063788
0.26961434 -0.19110015 2.6051133
0.27617681 -0.19303179 2.6044757
0.52512056 -0.19016945 2.605722
-0.32515839 -0.18804188 2.6053476
-0.3180553 -0.18236122 2.6043231
-0.29267478 -0.18057838 2.6008184
-0.27387261 -0.18191382 2.6042616
-0.26760769 -0.18235831 2.6043441
-0.22362885 -0.18596229 2.6050084
-0.2139975 -0.18509555 2.6048524
0.25606 -0.18337642 2.6076949
0.26294464 -0.18820316 2.6060774
0.28501299 -0.18469179 2.6040428
0.31353369 -0.18146332 2.6084852
-0.3111195 -0.17770401 2.6034834
-0.30455035 -0.17560041 2.6031046
-0.29650545 -0.17823823 2.604651
-0.2852976 -0.17286241 2.6058035
-0.27943036 -0.1758604 2.6031628
-0.2351681 -0.17540875 2.6062906
-0.22919892 -0.17839757 2.6036389
0.2467552 -0.17578578 2.6058464
0.25574404 -0.1797162 2.6023583
0.29696694 -0.17441954 2.6042433
0.30640939 -0.17200883 2.6050746
0.31654239 -0.17828554 2.6029873
0.32599533 -0.1758747 2.603817
0.33228749 -0.17394584 2.6044776
0.51251727 -0.17106755 2.6055961
-0.2593829 -0.16649693 2.6046562
-0.24411698 -0.16142811 2.6058543
0.23489566 -0.16484511 2.6039853
0.33832857 -0.1677705 2.6032577
0.50613976 -0.16141547 2.6088402
-0.25411189 -0.15762421 2.607265
0.20817167 -0.15749967 2.6096838
0.22768438 -0.15847184 2.6094174
0.3440347 -0.15580033 2.6039531
0.22424252 -0.14649525 2.604537
0.34975386 -0.14324912 2.6081438
0.2155526 -0.1370279 2.6065435
0.349567 -0.13957332 2.6026809
0.35570198 -0.13281319 2.604923
0.35501993 -0.12043729 2.6022694
0.36181256 -0.12430327 2.6010144
0.4137325 -0.12206126 2.6079857
0.36084414 -0.106121 2.6001868
0.26804158 -0.09685953 2.6038849
0.27415907 -0.09429232 2.6033812
0.39574796 -0.091421157 2.6086395
0.40335721 -0.098796673 2.6036677
0.27984563 -0.08773382 2.6052723
0.39424297 -0.082476445 2.6006474
0.28434721 -0.071199007 2.6052487
0.37379283 -0.074239947 2.6054678
0.38394681 -0.077863328 2.6061115
0.28970343 -0.062653683 2.606709
0.29589111 -0.061592683 2.6064863
0.3055107 -0.062743433 2.6066716
0.35927737 -0.062438827 2.6032844
0.36629161 -0.066848762 2.6040933
0.31615886 -0.05556649 2.6042233
0.32329312 -0.053583689 2.6079476
0.33554584 -0.050968632 2.6073956
0.3539257 -0.05452184 2.6059413
0.32568362 -0.048321735 2.6007369
0.33507684 -0.047980435 2.6006336
0.34471515 -0.04913228 2.6039095
-0.47383013 -0.60260236 2.6145637
-0.4627209 -0.60157311 2.6157413
-0.45319623 -0.60559827 2.6102743
-0.44665906 -0.60335374 2.6166182
-0.50421619 -0.59611887 2.6149435
-0.49859178 -0.59132242 2.616811
-0.48689583 -0.59241617 2.6134024
-0.47832775 -0.59958017 2.6186373
-0.45371449 -0.59969807 2.6154661
-0.44402707 -0.59559029 2.6161082
-0.43342978 -0.59057665 2.6106584
-0.50250864 -0.58829474 2.6125515
-0.49507797 -0.58684498 2.6130216
-0.44032347 -0.58835506 2.6171932
-0.43239725 -0.58589792 2.6162584
-0.42652154 -0.57503968 2.6150782
-0.41832519 -0.57651514 2.6106749
-0.39133948 -0.57712841 2.6157343
-0.5242449 -0.56231368 2.6178255
-0.51512456 -0.56900054 2.61498
-0.42255396 -0.56854963 2.6195476
-0.41502941 -0.56645894 2.6147313
-0.62382901 -0.55422467 2.6173916
-0.52672756 -0.55687702 2.6144104
-0.41211939 -0.55544639 2.6191838
-0.40706319 -0.55383408 2.6141691
-0.62406123 -0.54565728 2.6150823
-0.62119645 -0.53788841 2.6152177
-0.61659789 -0.53595883 2.6158738
-0.41191077 -0.53115648 2.617692
-0.61259782 -0.527134 2.613512
-0.58984458 -0.52147526 2.6124077
-0.60147953 -0.51094913 2.6167307
-0.61464387 -0.50435936 2.6176164
-0.61361945 -0.49879214 2.615885
-0.5979234 -0.49588042 2.6167259
-0.59578311 -0.4884845 2.6137228
-0.62636214 -0.4515518 2.6143556
-0.56954473 -0.44342017 2.6199057
-0.68252069 -0.43140614 2.6181483
-0.6279884 -0.43053129 2.6178541
-0.5645116 -0.43590617 2.6151228
-0.55459726 -0.42694688 2.6124456
-0.65106469 -0.41445971 2.6152067
-0.6446808 -0.41590151 2.6154327
-0.54328358 -0.41685852 2.6153851
-0.53613454 -0.41520697 2.6150954
-0.52899086 -0.41355586 2.6148064
-0.46026993 -0.41039598 2.6141856
-0.45462254 -0.41694546 2.615284
-0.44481599 -0.41959178 2.61572
-0.66441977 -0.40104187 2.6129863
-0.65584505 -0.40682378 2.6139348
-0.63622725 -0.40909117 2.6142642
-0.62933505 -0.4084709 2.6141429
-0.52100635 -0.40779591 2.6138234
-0.50614846 -0.40141761 2.6127274
-0.49956098 -0.40284735 2.6198943
-0.47581878 -0.402724 2.6163766
-0.46701804 -0.40999487 2.6141255
-0.43163055 -0.40277717 2.6128705
-0.51263118 -0.39998445 2.6124945
-0.49441442 -0.39935526 2.6146729
-0.48460686 -0.39544898 2.6151538
-0.47854415 -0.39893332 2.6122732
-0.43065298 -0.39765429 2.6189442
-0.38471878 -0.38043106 2.6173317
-0.37521678 -0.38907668 2.6140711
-0.36414456 -0.38385394 2.6144934
-0.35538012 -0.38042471 2.6172795
-0.34951818 -0.38042381 2.6172721
0.085786104 -0.38213384 2.6148052
-0.4048171 -0.37396646 2.6137235
-0.39974624 -0.37204227 2.6144247
-0.38714236 -0.3739613 2.6136811
-0.37883514 -0.37972659 2.6115201
-0.35615754 -0.37779981 2.6121995
-0.34539193 -0.37557155 2.6145344
-0.33618715 -0.37442222 2.6174834
-0.32798085 -0.37526548 2.6161525
-0.31480509 -0.37106884 2.6146805
-0.30562705 -0.37202999 2.6143231
0.075095654 -0.37216944 2.6154737
0.09232673 -0.37025616 2.6162627
-0.39548451 -0.36819613 2.6158433
-0.32568625 -0.36542895 2.6137338
-0.31666708 -0.36555648 2.6106424
-0.3046436 -0.36386952 2.6133001
0.091199964 -0.36378446 2.6125979
-0.41674736 -0.35607567 2.6152215
-0.30005759 -0.35498139 2.6145597
-0.29647392 -0.35401961 2.6149118
0.045206606 -0.35510999 2.6156197
-0.29073513 -0.34825212 2.6170564
-0.28471899 -0.34264973 2.6150362
-0.00088179111 -0.34739625 2.6182823
0.026416391 -0.34557071 2.6170352
0.03384003 -0.34321219 2.616914
0.041206717 -0.34959182 2.6115315
0.090387046 -0.3487519 2.6168468
0.014927328 -0.33803889 2.6156712
0.020867229 -0.33768469 2.6127491
0.041448995 -0.33601591 2.6147504
0.70584357 -0.33419043 2.6149998
0.71485662 -0.33394712 2.6150641
0.7233544 -0.33862925 2.6163979
0.73471326 -0.33478305 2.6136727
0.74446076 -0.33646524 2.6109753
0.75695354 -0.33248955 2.6154704
0.0030136704 -0.3246915 2.6174378
0.034470037 -0.32656145 2.6131203
0.08269465 -0.3202047 2.6118991
0.68602294 -0.3212148 2.6136165
0.69544595 -0.32806304 2.6162462
0.7453686 -0.32948554 2.6196947
0.75136876 -0.32948327 2.6196761
0.7636348 -0.32683814 2.6144276
0.7742483 -0.3221049 2.6140537
-0.4034006 -0.31656384 2.6117535
-0.0016581416 -0.31711599 2.6170936
0.048125356 -0.31323335 2.6107707
0.054960534 -0.31060159 2.6102967
0.065358244 -0.31370199 2.6142359
0.075669363 -0.31478739 2.6109746
0.68073303 -0.31267691 2.6136246
0.78277862 -0.3182936 2.6143787
0.068758547 -0.30936593 2.6168816
0.075617433 -0.30874863 2.6167569
0.66936809 -0.30329469 2.610806
0.67576295 -0.3001686 2.6181669
0.79057837 -0.30505827 2.6129253
0.054875195 -0.29851645 2.614994
0.66991723 -0.29728335 2.6192257
0.79842752 -0.29254305 2.6174116
0.65857649 -0.28523916 2.6110239
0.66445678 -0.28885651 2.6160045
-0.041416049 -0.27545348 2.6131678
0.62672997 -0.2692368 2.6138415
0.67370772 -0.26097563 2.6120081
0.68568957 -0.26645106 2.6129045
0.69584465 -0.26503286 2.6125724
0.78736603 -0.2648648 2.6152716
0.80855465 -0.26400214 2.6181436
0.66532135 -0.25568083 2.6111169
0.70459139 -0.25845125 2.6147428
0.71491957 -0.25777373 2.6145411
0.72024846 -0.25175178 2.6168206
0.74838632 -0.2522409 2.6132789
-0.19699113 -0.24557616 2.6190863
0.65535253 -0.24597782 2.6186171
0.72397864 -0.24032497 2.6147029
0.73574066 -0.24481189 2.6154354
0.75348264 -0.24573576 2.6154706
0.77331269 -0.24193436 2.6146252
-0.20931144 -0.2376105 2.6176317
0.75793517 -0.23726878 2.6138883
0.76442611 -0.23567638 2.6135478
0.64437145 -0.22328505 2.6137288
0.74826509 -0.22806257 2.6190457
0.75502729 -0.22745395 2.6188831
0.76178855 -0.22684541 2.6187205
0.57550597 -0.21135274 2.6147354
0.58821529 -0.21076468 2.6181717
0.59450775 -0.2117278 2.6178286
0.60074675 -0.21365449 2.6171503
0.61657631 -0.21289681 2.6108985
0.62601137 -0.21385929 2.6105509
0.63659245 -0.21346609 2.6128323
-0.37119162 -0.2007578 2.6108449
-0.35217172 -0.20056126 2.6140301
-0.34614903 -0.20253995 2.6143975
0.56941199 -0.20422566 2.6139498
0.58191705 -0.20980172 2.6185141
0.60732776 -0.20883365 2.6188161
0.61382931 -0.20594069 2.6198118
0.62646991 -0.20690212 2.6194568
0.63269341 -0.20882875 2.6187758
-0.37692177 -0.1972405 2.6102018
-0.36425591 -0.1971117 2.6133895
-0.35786045 -0.196536 2.6132846
-0.33892858 -0.1968516 2.6165655
-0.2118791 -0.19751689 2.6167803
0.27624652 -0.19465595 2.6137307
0.28481802 -0.19558875 2.6145205
0.29508293 -0.19166732 2.6180794
0.30162776 -0.19359745 2.6174293
0.55368769 -0.19806153 2.6128211
0.56327611 -0.19747643 2.6162817
-0.36928338 -0.18950076 2.6151853
-0.33148164 -0.18912357 2.6151423
-0.32465729 -0.18548457 2.6144745
-0.31799209 -0.18286835 2.613996
-0.22648875 -0.18421194 2.6143115
-0.21692705 -0.18385552 2.6142519
0.24967805 -0.18413889 2.6139853
0.2564756 -0.18799955 2.6126847
0.26716116 -0.18857884 2.6147022
0.28851247 -0.18897381 2.6124353
0.29448551 -0.18415256 2.6140981
0.30510822 -0.18376713 2.6164417
0.31671482 -0.18174715 2.6149702
0.5445497 -0.18031989 2.6156275
-0.31077331 -0.17616905 2.6127629
-0.3043015 -0.17508526 2.6157534
-0.29577276 -0.1738127 2.6144617
-0.2726154 -0.17273498 2.6121569
-0.26649684 -0.17420095 2.6124325
-0.23525038 -0.17744115 2.61625
-0.22881629 -0.176865 2.6193442
-0.19028424 -0.17138086 2.6183491
0.24248266 -0.17651874 2.6132727
0.29681361 -0.17325716 2.6112289
0.30665666 -0.17567217 2.6104329
0.31936589 -0.1737455 2.6111135
0.32567245 -0.17258568 2.6181207
-0.29094404 -0.16934876 2.6178727
-0.28412223 -0.16469908 2.6138339
-0.27612269 -0.167677 2.6154549
-0.26543146 -0.16604453 2.6172791
-0.24255438 -0.16734473 2.615423
0.23470783 -0.16407138 2.6141777
0.32531178 -0.16699246 2.6134143
0.33486009 -0.16506499 2.6140862
-0.25502604 -0.15754613 2.6156955
0.20807302 -0.15730768 2.6163888
0.22395438 -0.15451366 2.6140571
0.34392864 -0.15503082 2.6141801
0.21348877 -0.14823727 2.6161468
0.22010612 -0.14959291 2.6190422
0.26322448 -0.11141448 2.6129749
0.40587234 -0.11370019 2.6128364
0.41299963 -0.11709751 2.6198406
0.26549214 -0.10213873 2.6143601
0.39725327 -0.10036565 2.6166792
0.2677345 -0.092865467 2.6157212
0.27443826 -0.096289493 2.6100588
0.27517322 -0.082789063 2.6179259
0.38382959 -0.083426885 2.6155605
0.27903497 -0.079749048 2.6131539
0.28446379 -0.071199745 2.617722
0.29392666 -0.070852302 2.6176248
0.37399834 -0.075235292 2.6119256
0.39391127 -0.07949844 2.6189461
0.2839449 -0.067207791 2.6107168
0.30590248 -0.065237194 2.6164868
0.36591816 -0.063866079 2.6128774
0.37312996 -0.069269389 2.6170287
0.3142623 -0.056418702 2.6147323
0.32328358 -0.053086028 2.614048
0.33553123 -0.050471418 2.6134923
0.34515116 -0.051622022 2.6136818
0.35537562 -0.056751505 2.6146472
0.38943702 -0.051674869 2.6197209
-0.44500524 -0.60207486 2.622643
-0.49427855 -0.59036368 2.6254759
-0.48367086 -0.59682751 2.6235523
-0.47276422 -0.59542716 2.6258121
-0.4651196 -0.59445751 2.6260998
-0.45528677 -0.59778821 2.6245718
-0.44202483 -0.59728897 2.6245971
-0.50599504 -0.58336782 2.625772
-0.49819583 -0.58175105 2.6207221
-0.44113839 -0.587883 2.6257286
-0.4329741 -0.58601099 2.6254783
-0.42655206 -0.58451474 2.6269474
-0.58599877 -0.57333064 2.6258411
-0.42799723 -0.57526588 2.6252313
-0.52330613 -0.56487799 2.6224065
-0.42537057 -0.56324261 2.62549
-0.63141477 -0.55235845 2.6268578
-0.62508428 -0.55296957 2.6236117
-0.41947025 -0.55227631 2.6261799
-0.40892053 -0.55065656 2.6211047
-0.62219286 -0.54817063 2.6254582
-0.53763783 -0.54862976 2.629246
-0.41511473 -0.54413688 2.6294737
-0.40479749 -0.54778051 2.6222396
-0.62193763 -0.5379253 2.6238103
-0.61788583 -0.53503948 2.6248646
-0.61651945 -0.52703619 2.6251373
-0.60622001 -0.52542669 2.6284335
-0.41285443 -0.5298993 2.6238945
-0.6155504 -0.51740426 2.620261
-0.59888816 -0.51640713 2.6203213
-0.61482072 -0.5034976 2.6257005
-0.60960722 -0.50847191 2.6294446
-0.60389578 -0.49724048 2.6279461
-0.62901664 -0.46288794 2.6233053
-0.68681681 -0.44793114 2.6279521
-0.6224463 -0.43608835 2.625771
-0.67440879 -0.42664939 2.6242805
-0.66666991 -0.42292812 2.6236234
-0.65614963 -0.42147711 2.6233487
-0.5548234 -0.4234488 2.623491
-0.53030419 -0.42074436 2.6299696
-0.64459598 -0.41590011 2.6223664
-0.63768655 -0.41527829 2.6222441
-0.62311327 -0.41094196 2.62147
-0.55003208 -0.41747841 2.6294224
-0.54193795 -0.41120148 2.6248481
-0.53610438 -0.41571784 2.6256232
-0.52467543 -0.41519228 2.6243579
-0.47376266 -0.4106144 2.6281614
-0.46483126 -0.41115093 2.6236064
-0.45378882 -0.41284353 2.6215646
-0.44404075 -0.41600245 2.6255891
-0.62500441 -0.40506583 2.6239195
-0.51332676 -0.40408948 2.6235864
-0.50652355 -0.4039813 2.6235631
-0.49571151 -0.4009949 2.626503
-0.47640207 -0.40631175 2.6239362
-0.45632988 -0.40854141 2.6277902
0.026327237 -0.40449238 2.6210814
-0.48505941 -0.39852372 2.626065
-0.43038058 -0.3966276 2.6257031
-0.38291234 -0.38580668 2.6243873
-0.37529454 -0.38520765 2.6235886
-0.36339849 -0.38340092 2.6252596
-0.35564104 -0.38552371 2.6234334
-0.34952539 -0.38112637 2.6230681
0.012213498 -0.38026506 2.6242514
0.031469107 -0.38865504 2.6271663
-0.35070252 -0.37894854 2.6299634
-0.3434329 -0.37440181 2.6256032
-0.33461827 -0.37440097 2.6255949
-0.3258051 -0.3744002 2.6255894
-0.3179304 -0.37164593 2.623585
-0.30636209 -0.37081304 2.620857
0.091130346 -0.3728894 2.6280556
-0.40388507 -0.36349434 2.6267791
-0.39611933 -0.36781543 2.6251354
-0.32437199 -0.3698523 2.6212199
-0.31372169 -0.36732298 2.625216
-0.30451736 -0.3658396 2.62679
-0.29823765 -0.36155915 2.627389
0.0032316744 -0.3668161 2.6293221
-0.29557934 -0.35220283 2.6247854
-0.0001590848 -0.35170022 2.6289258
0.0038949996 -0.35579723 2.62129
0.017356753 -0.35003793 2.6235027
0.044634059 -0.35328865 2.6254578
0.056215983 -0.35669994 2.6232126
0.072241426 -0.35846081 2.6266894
-0.29215872 -0.34511971 2.6243634
-0.0079312474 -0.34294218 2.6229732
0.0037142336 -0.34163082 2.6204422
0.013298944 -0.34487486 2.6223435
0.046773195 -0.34909183 2.6239841
0.064170539 -0.34717852 2.6247749
-0.28613564 -0.33430919 2.6263387
0.0072481632 -0.33105832 2.6243818
0.023268297 -0.33658755 2.6285601
0.032628417 -0.33851427 2.6278799
0.70696849 -0.33397874 2.6263747
0.71503568 -0.3330968 2.6246254
0.72375941 -0.33549723 2.6237092
0.7326864 -0.33597481 2.6235046
-0.28237563 -0.32229522 2.6266732
0.0059086978 -0.32457167 2.6205914
0.086470269 -0.32794029 2.6235652
0.68612576 -0.3212108 2.6260145
0.69379497 -0.32517418 2.6255629
0.7395941 -0.32756457 2.6204205
0.7432667 -0.32251251 2.6284657
0.75807643 -0.32442933 2.6277061
0.76594305 -0.3252297 2.6232581
0.77048564 -0.32154077 2.6287355
0.05515258 -0.31261322 2.6243222
0.065495566 -0.31420308 2.6245878
0.075875521 -0.31679779 2.6250329
0.08280611 -0.31819043 2.6252685
0.68070364 -0.31412074 2.625536
0.75277197 -0.31866378 2.6298628
0.77691609 -0.31793386 2.6238408
0.78373861 -0.31216103 2.625942
-0.0096608102 -0.30917779 2.6261926
0.065410234 -0.30514246 2.6297808
0.075690255 -0.30472139 2.6296861
0.68140531 -0.3057031 2.6223886
0.79046869 -0.30698842 2.6247046
-0.031991601 -0.29039833 2.6204379
-0.013277829 -0.2930612 2.6258311
0.7980513 -0.29604116 2.6255534
0.6653958 -0.28240728 2.6241293
0.67550439 -0.2883026 2.6265378
0.68421423 -0.2872594 2.623579
0.69300282 -0.28041887 2.6222644
0.65572548 -0.27268291 2.62112
0.69967711 -0.27881593 2.6288171
0.79748344 -0.27454728 2.6238599
0.807809 -0.27028993 2.6285799
0.69695777 -0.26897186 2.6201422
0.70413917 -0.2693401 2.6270268
0.71018994 -0.2657707 2.6263208
0.80895358 -0.2618522 2.6252689
0.71539593 -0.25925249 2.6250737
0.72001129 -0.25077084 2.6234665
0.78426617 -0.25456929 2.6271195
0.72486359 -0.24327627 2.6220405
0.7353673 -0.2433423 2.6253817
0.77365339 -0.24291827 2.6216164
0.74296927 -0.2335836 2.6234975
0.76331651 -0.23175544 2.6264014
0.77249241 -0.23899563 2.6276991
-0.20827167 -0.22744018 2.6223145
0.63188446 -0.22211233 2.6206272
0.74801326 -0.22708313 2.6256306
0.75418288 -0.22451121 2.6251023
-0.34771201 -0.21378018 2.6261497
-0.20742209 -0.21930356 2.6273234
0.62616599 -0.21247759 2.6240144
-0.35579112 -0.20442459 2.6243868
-0.3403554 -0.20706844 2.6248977
0.60441965 -0.20429088 2.6269188
0.62029094 -0.20401156 2.620472
0.63959908 -0.20091131 2.6280441
-0.33243454 -0.19627292 2.6228809
-0.32583857 -0.19467402 2.6257987
-0.31910381 -0.19205439 2.6285119
-0.21466751 -0.19475171 2.6259284
0.27595073 -0.19242384 2.6243205
0.28687808 -0.19589348 2.6253221
0.29556286 -0.19811134 2.6256621
0.30181035 -0.19666722 2.6261804
0.59521955 -0.19706538 2.6294641
0.61435139 -0.1970621 2.629437
-0.36233276 -0.18585616 2.620898
-0.31372055 -0.18316372 2.6225672
-0.22310187 -0.18341157 2.6237841
-0.21683721 -0.18385321 2.620666
-0.19759406 -0.1821214 2.6203578
0.24939777 -0.18239361 2.6244478
0.25579587 -0.18201286 2.6213059
0.26560554 -0.18432648 2.6238196
0.30716521 -0.18375714 2.6274092
0.31356066 -0.18299377 2.6211114
0.56998527 -0.18859643 2.6258974
-0.30423555 -0.17559214 2.6253986
-0.24418822 -0.17371704 2.6251183
-0.23500724 -0.17641971 2.6256437
-0.22862084 -0.17584497 2.6255419
-0.1903739 -0.17341107 2.6251223
0.23584116 -0.17602386 2.62991
0.24251899 -0.17805296 2.6259303
0.25511625 -0.17603037 2.6299636
0.26192999 -0.17988837 2.6286411
0.3193197 -0.17431675 2.624115
0.5511483 -0.17433527 2.6242678
-0.29396063 -0.16912186 2.6241808
-0.28385761 -0.1636755 2.6231577
-0.27479821 -0.16638912 2.6236854
-0.26521987 -0.165023 2.6234376
-0.25570041 -0.16416617 2.6232867
0.22587574 -0.16310306 2.6255257
0.23495124 -0.1671567 2.6230562
0.3254067 -0.16949713 2.6257892
0.33130857 -0.16101208 2.622088
0.21410806 -0.15461174 2.6272981
0.22046524 -0.15326263 2.624455
0.33752382 -0.15715525 2.6234181
0.3436999 -0.15233338 2.6250772
0.206788 -0.14747025 2.6263924
0.41003093 -0.13853835 2.6239979
0.25833246 -0.12597623 2.6221409
0.25758228 -0.11798339 2.6269557
0.26129195 -0.091437139 2.6248908
0.38955605 -0.0919955 2.6277292
0.26680821 -0.083378538 2.6232874
0.27622956 -0.082029216 2.6261287
0.38526028 -0.085321248 2.6232665
0.28486767 -0.074193865 2.6245501
0.29090884 -0.071633741 2.6240249
0.29666579 -0.06658113 2.6261153
0.30583224 -0.063991658 2.6255741
0.31488889 -0.06040654 2.6279359
0.35547403 -0.064144179 2.6244075
0.36614716 -0.064862214 2.6224308
0.37318182 -0.06927035 2.6232796
0.31444669 -0.057415891 2.6211317
0.32393122 -0.05732128 2.6241848
0.33613211 -0.054206595 2.6235235
0.34594357 -0.056600466 2.6239715
-0.60950208 -0.60374177 2.636395
-0.49222809 -0.59068918 2.6364489
-0.48383784 -0.59439021 2.633832
-0.47562376 -0.59299511 2.6361353
-0.46411836 -0.59230977 2.6353157
-0.45585391 -0.5925349 2.6351011
-0.44768405 -0.59220099 2.6323459
-0.4745822 -0.58746642 2.6347232
-0.44147849 -0.58836758 2.6338708
-0.43485707 -0.58657432 2.6356514
-0.42348048 -0.58430368 2.6334937
-0.4172135 -0.58259803 2.6359968
-0.61550486 -0.57280338 2.6380665
-0.50695187 -0.57764339 2.6365585
-0.4166452 -0.57579523 2.6351235
-0.52246177 -0.56809193 2.6323462
-0.51957428 -0.56395423 2.6396477
-0.42155764 -0.56649339 2.6315904
-0.62690461 -0.55075979 2.6302431
-0.42362362 -0.55580276 2.6304107
-0.41957545 -0.55357951 2.6369309
-0.63784003 -0.54283297 2.6394348
-0.62400186 -0.54596215 2.6321006
-0.59512377 -0.54750341 2.6365292
-0.42135584 -0.54910302 2.6331506
-0.41950887 -0.54144728 2.6362908
-0.62407607 -0.53557253 2.6334054
-0.61973369 -0.53316605 2.6342711
-0.54290175 -0.53972566 2.6386628
-0.41671574 -0.53570414 2.6386347
-0.61417055 -0.52788281 2.6362653
-0.60524559 -0.52800655 2.633142
-0.61852193 -0.51395667 2.6332541
-0.62388361 -0.50371265 2.6316168
