ply
format ascii 1.0
comment PCL generated
obj_info Generated by CloudCompare!
element vertex 1681
property float x
property float y
property float z
end_header
0.636357 0.467915 2.197947 
0.643432 0.469059 2.195347 
0.658330 0.469391 2.195062 
0.666773 0.466875 2.194958 
0.675968 0.462410 2.194881 
0.694449 0.462392 2.195354 
0.703286 0.463358 2.191893 
0.711933 0.460608 2.191786 
0.522946 0.471831 2.190249 
0.534768 0.472285 2.195849 
0.544583 0.474278 2.194654 
0.554983 0.472694 2.194490 
0.564134 0.475279 2.196697 
0.574873 0.472717 2.196549 
0.583823 0.475791 2.196318 
0.605858 0.476766 2.195885 
0.614011 0.474728 2.195774 
0.624683 0.472664 2.195621 
0.635449 0.470358 2.193027 
0.647755 0.470960 2.195226 
0.652421 0.471884 2.195118 
0.589457 0.481339 2.196095 
0.597078 0.480764 2.195965 
0.505586 -0.201754 2.204050 
0.511846 -0.200769 2.204209 
0.524307 -0.203725 2.203729 
0.530587 -0.201754 2.204047 
0.605570 -0.201752 2.204029 
0.611870 -0.200767 2.204186 
0.636732 -0.202736 2.203857 
0.646092 -0.202735 2.203852 
0.442854 -0.190917 2.205801 
0.467976 -0.190917 2.205804 
0.474270 -0.192887 2.205486 
0.480537 -0.190917 2.205805 
0.496220 -0.195843 2.205007 
0.518124 -0.198799 2.204527 
0.536878 -0.199784 2.204365 
0.546348 -0.196335 2.204922 
0.555701 -0.197813 2.204681 
0.565091 -0.197813 2.204679 
0.574518 -0.196827 2.204836 
0.583893 -0.197319 2.204754 
0.596433 -0.196826 2.204830 
0.618174 -0.199781 2.204343 
0.624543 -0.197810 2.204660 
0.630798 -0.197810 2.204657 
0.655960 -0.195838 2.204964 
0.665424 -0.194852 2.205119 
0.674570 -0.197807 2.204635 
0.681321 -0.191895 2.205589 
0.432258 -0.185738 2.204518 
0.449081 -0.187961 2.206281 
0.455377 -0.188077 2.203089 
0.461658 -0.187584 2.203169 
0.486814 -0.187962 2.206283 
0.687760 -0.189925 2.205904 
0.694566 -0.183635 2.203743 
0.701218 -0.180072 2.207491 
0.398182 -0.172422 2.202399 
0.417104 -0.170452 2.202717 
0.423597 -0.176252 2.204984 
0.704696 -0.176245 2.204924 
0.714444 -0.173287 2.205390 
0.723910 -0.173287 2.205386 
0.393703 -0.166688 2.207580 
0.404399 -0.169466 2.202871 
0.413790 -0.166398 2.206564 
0.708557 -0.168474 2.202971 
0.733906 -0.168359 2.206171 
0.740502 -0.165515 2.203421 
0.072493 -0.150714 2.205632 
0.085182 -0.150716 2.205645 
0.365375 -0.150739 2.205839 
0.384760 -0.155668 2.205061 
0.748051 -0.154673 2.205141 
0.754410 -0.154673 2.205137 
0.767481 -0.151715 2.205598 
0.019781 -0.140852 2.207148 
0.026634 -0.142934 2.203599 
0.033477 -0.145399 2.203218 
0.043103 -0.146276 2.206309 
0.056175 -0.148249 2.206008 
0.065969 -0.149728 2.205783 
0.075774 -0.144948 2.202255 
0.095083 -0.146519 2.204173 
0.109597 -0.144806 2.206609 
0.116201 -0.145901 2.203216 
0.125987 -0.147764 2.206153 
0.135223 -0.145794 2.206475 
0.144703 -0.144918 2.203395 
0.154043 -0.143441 2.203639 
0.204848 -0.141090 2.200819 
0.211478 -0.143062 2.200515 
0.336102 -0.142223 2.203950 
0.355390 -0.143456 2.203761 
0.374830 -0.148276 2.206234 
0.761465 -0.148759 2.206073 
0.774578 -0.145417 2.203367 
0.784084 -0.145909 2.203283 
0.794363 -0.140487 2.204131 
-0.001593 -0.130009 2.208851 
0.005513 -0.133074 2.205131 
0.014996 -0.137712 2.203335 
0.104306 -0.138051 2.203368 
0.159717 -0.138513 2.204420 
0.166109 -0.138513 2.204425 
0.175264 -0.135311 2.204939 
0.184838 -0.135066 2.204989 
0.194163 -0.132849 2.205346 
0.203635 -0.132003 2.208728 
0.213670 -0.135069 2.205010 
0.242162 -0.132007 2.208755 
0.326057 -0.136061 2.204914 
0.345449 -0.138034 2.204613 
0.804619 -0.135557 2.204899 
0.813876 -0.138021 2.204502 
0.823087 -0.133128 2.204190 
0.840564 -0.130240 2.202465 
-0.006470 -0.121737 2.206909 
0.216009 -0.128062 2.209365 
0.225541 -0.126304 2.203145 
0.235142 -0.126199 2.206420 
0.244646 -0.124333 2.203465 
0.263926 -0.123842 2.203554 
0.273831 -0.126307 2.203174 
0.282395 -0.126238 2.205360 
0.296014 -0.121872 2.203879 
0.318802 -0.125113 2.209897 
0.828597 -0.125100 2.209784 
0.834300 -0.129254 2.202624 
0.844896 -0.123232 2.206810 
-0.024444 -0.112476 2.205090 
-0.014160 -0.115435 2.204637 
0.253609 -0.117433 2.204550 
0.305427 -0.118422 2.204423 
0.315129 -0.118423 2.204428 
0.856471 -0.110521 2.205535 
1.055997 -0.111484 2.205192 
1.062660 -0.110497 2.205339 
-0.071309 -0.104583 2.206276 
-0.065452 -0.101730 2.203452 
-0.045978 -0.102615 2.206610 
-0.035305 -0.107052 2.205927 
0.866953 -0.105590 2.206297 
0.876913 -0.103720 2.203300 
0.955038 -0.100857 2.200396 
0.963527 -0.101774 2.202434 
0.974434 -0.101635 2.206815 
0.987260 -0.101736 2.203507 
0.999863 -0.102824 2.200052 
1.015767 -0.104588 2.206312 
1.024992 -0.106558 2.205994 
1.033886 -0.104983 2.204048 
1.043615 -0.109514 2.205513 
1.050045 -0.109513 2.205506 
1.069329 -0.109511 2.205487 
1.076248 -0.107538 2.205788 
1.083676 -0.103593 2.206397 
1.090627 -0.100842 2.200270 
-0.095883 -0.096056 2.204301 
-0.086007 -0.096797 2.204198 
-0.079306 -0.097784 2.204053 
-0.060153 -0.096800 2.204222 
-0.053914 -0.095815 2.204383 
0.884464 -0.097311 2.204288 
0.894881 -0.093366 2.204892 
0.905155 -0.090014 2.202105 
0.915585 -0.092575 2.203897 
0.924128 -0.093363 2.204868 
0.934895 -0.093560 2.203730 
0.945773 -0.093490 2.205921 
0.952961 -0.095331 2.204531 
0.968770 -0.097692 2.207438 
0.975050 -0.097896 2.200832 
0.981623 -0.097793 2.204124 
0.994885 -0.096313 2.204347 
1.004698 -0.095819 2.204415 
1.096191 -0.096431 2.205319 
1.104670 -0.096793 2.204161 
1.116433 -0.092881 2.203660 
1.125495 -0.090976 2.201753 
1.131020 -0.094818 2.204441 
0.905323 -0.089813 2.208730 
0.912010 -0.088826 2.208879 
0.931359 -0.089810 2.208707 
1.009565 -0.088815 2.208785 
1.113594 -0.087816 2.208834 
1.126020 -0.089786 2.208513 
1.140322 -0.084463 2.206036 
1.175758 -0.085199 2.205887 
-0.111252 -0.073229 2.204511 
1.150094 -0.072236 2.204608 
1.167947 -0.078151 2.203683 
1.187724 -0.077163 2.203816 
1.158545 -0.065331 2.205661 
1.164241 -0.068289 2.205201 
1.197441 -0.066313 2.205474 
1.205149 -0.062368 2.206073 
1.213772 -0.055464 2.207125 
1.215566 -0.048751 2.201473 
1.224726 -0.047965 2.206039 
1.234275 -0.041749 2.205862 
-0.127866 -0.032978 2.203944 
1.238951 -0.036911 2.203239 
1.245550 -0.037309 2.206526 
1.254958 -0.028031 2.204566 
1.265354 -0.016191 2.206342 
1.275818 -0.003948 2.204783 
1.284904 0.003453 2.205880 
1.294033 0.011261 2.203619 
1.328346 0.013238 2.203889 
1.336434 0.017186 2.204468 
1.304013 0.021131 2.205073 
1.324945 0.023106 2.205351 
1.359440 0.025082 2.205622 
-0.152853 0.038879 2.207828 
1.313718 0.030013 2.206380 
1.321820 0.033961 2.206959 
1.348982 0.034374 2.203551 
1.355426 0.032977 2.206792 
1.371446 0.039886 2.207805 
1.383583 0.048990 2.204522 
1.395088 0.049595 2.202291 
1.393270 0.053210 2.209763 
1.405521 0.059467 2.203719 
1.417774 0.054692 2.209969 
1.425363 0.057494 2.203423 
1.450135 0.050585 2.202410 
1.460410 0.059470 2.203695 
1.416901 0.062430 2.204143 
1.435928 0.067367 2.204851 
1.448189 0.063418 2.204273 
1.469581 0.065394 2.204551 
1.475689 0.063420 2.204262 
1.484515 0.068356 2.204975 
1.444305 0.071316 2.205420 
1.496903 0.082177 2.206976 
1.504627 0.084989 2.200356 
1.513554 0.089927 2.201056 
1.589266 0.087116 2.207672 
1.596234 0.087535 2.204215 
1.623244 0.085978 2.200479 
1.632393 0.085091 2.205034 
1.644176 0.085560 2.203935 
1.654093 0.087016 2.202971 
1.665134 0.085560 2.203933 
1.674238 0.082598 2.203508 
1.685424 0.084078 2.203723 
1.694991 0.084711 2.202648 
1.705437 0.086736 2.205282 
1.715349 0.088027 2.204296 
1.723965 0.084077 2.203732 
1.734258 0.083165 2.207116 
1.744310 0.082177 2.206977 
1.755843 0.084570 2.203813 
-0.189365 0.099924 2.209739 
-0.174879 0.097948 2.209463 
1.508577 0.094024 2.208691 
1.515542 0.094024 2.208688 
1.522509 0.094444 2.205224 
1.534983 0.098961 2.209399 
1.546696 0.093532 2.208609 
1.555726 0.096231 2.204295 
1.565589 0.097828 2.202169 
1.579985 0.098816 2.202307 
1.583370 0.095293 2.206509 
1.590550 0.090916 2.201183 
1.605153 0.091978 2.204853 
1.614684 0.092611 2.203772 
1.623493 0.093533 2.208600 
1.660420 0.090077 2.208100 
1.767596 0.093949 2.205165 
1.774918 0.094863 2.201772 
1.780996 0.092887 2.201495 
1.791101 0.098812 2.202340 
-0.190685 0.105706 2.203473 
-0.183423 0.104296 2.206823 
-0.176687 0.105705 2.203481 
1.531898 0.100790 2.202597 
1.543190 0.102765 2.202875 
1.567256 0.100936 2.209678 
1.574253 0.101357 2.206203 
-0.113501 0.115143 2.205233 
1.806312 0.114612 2.204590 
-0.135178 0.125287 2.208290 
1.821108 0.129424 2.206700 
-0.134333 0.137466 2.202459 
-0.106862 0.131871 2.204851 
1.832147 0.137257 2.204236 
1.854098 0.138177 2.200788 
1.862885 0.136245 2.202915 
-0.100279 0.148590 2.207264 
1.768991 0.145412 2.209764 
1.772625 0.149772 2.209588 
1.846599 0.144599 2.201677 
1.853336 0.142754 2.208610 
1.875389 0.143246 2.208695 
-0.099925 0.155684 2.201566 
1.610192 0.158346 2.205507 
1.624918 0.152614 2.205456 
1.635963 0.156128 2.205196 
1.672518 0.153873 2.204739 
1.742893 0.159193 2.209685 
1.789019 0.156293 2.203090 
1.846328 0.150161 2.209656 
1.580428 0.161716 2.205848 
1.642937 0.164821 2.204851 
1.710788 0.163361 2.209976 
1.725705 0.165379 2.205700 
1.733068 0.162342 2.209717 
1.747069 0.165622 2.205410 
1.768293 0.163495 2.209234 
1.771793 0.167848 2.203001 
-0.093335 0.174421 2.203943 
1.555023 0.177575 2.205770 
1.566269 0.171531 2.205776 
1.576703 0.175494 2.205508 
1.582286 0.177005 2.205383 
1.592219 0.172858 2.205356 
1.647778 0.171809 2.204585 
1.665696 0.175438 2.204230 
1.676425 0.179428 2.203969 
1.688306 0.173441 2.203971 
1.695634 0.173092 2.203880 
1.708808 0.174278 2.203666 
1.711994 0.170526 2.209744 
1.732615 0.171379 2.203424 
1.767089 0.173468 2.208952 
1.770658 0.177822 2.208779 
-0.136198 0.184674 2.207302 
1.666203 0.183543 2.209955 
1.692953 0.184948 2.203587 
1.746934 0.184262 2.202879 
-0.140685 0.196368 2.207185 
-0.135553 0.193810 2.201680 
1.538174 0.191181 2.205630 
1.659283 0.191999 2.203856 
-0.153149 0.208102 2.204506 
-0.143592 0.205182 2.203473 
-0.086043 0.208342 2.205994 
-0.172823 0.216329 2.203838 
-0.163311 0.213740 2.204604 
-0.085618 0.217458 2.200424 
1.481692 0.223398 2.205553 
1.490520 0.220160 2.205512 
1.501263 0.223143 2.205264 
-0.079314 0.235665 2.202729 
1.484719 0.236776 2.205120 
1.495378 0.239752 2.204874 
1.459795 0.244614 2.205272 
-0.073202 0.251839 2.205024 
1.449026 0.250702 2.205260 
-0.067404 0.263450 2.204722 
-0.061780 0.271008 2.209761 
1.416739 0.278040 2.204961 
1.425997 0.273833 2.204941 
-0.061325 0.283151 2.204278 
-0.056050 0.283621 2.209411 
1.383212 0.286112 2.205245 
-0.052215 0.294387 2.205660 
-0.044965 0.304279 2.206218 
1.078982 0.307122 2.209641 
1.345301 0.309920 2.205142 
1.391241 0.304981 2.204570 
-0.039417 0.316876 2.205886 
1.027048 0.319590 2.204800 
1.037695 0.317187 2.206467 
1.045976 0.315747 2.207260 
1.055467 0.313829 2.207151 
1.065190 0.314957 2.206052 
1.074396 0.310240 2.206924 
1.085298 0.316094 2.206568 
1.098168 0.313387 2.206421 
1.106007 0.312918 2.205399 
1.112507 0.314845 2.207033 
1.349647 0.312327 2.205003 
1.371700 0.315320 2.204572 
-0.034063 0.324919 2.205643 
-0.028840 0.329421 2.205465 
1.117386 0.324442 2.205770 
1.126639 0.328047 2.205508 
1.327184 0.327443 2.204914 
1.350005 0.320424 2.204761 
1.373346 0.321517 2.204365 
-0.023662 0.332912 2.205308 
-0.018437 0.339431 2.205094 
0.973073 0.337920 2.205250 
0.982707 0.335258 2.205153 
0.995684 0.336930 2.204875 
1.001977 0.335480 2.204804 
1.013078 0.335471 2.204607 
1.126419 0.333237 2.204473 
1.134908 0.333326 2.207892 
1.140710 0.337880 2.207657 
1.186213 0.337943 2.206891 
-0.013272 0.344432 2.204909 
-0.008171 0.348422 2.202207 
0.962456 0.348053 2.205158 
0.987417 0.342235 2.204875 
1.004751 0.340771 2.204608 
1.134271 0.343858 2.202260 
1.144808 0.343627 2.205641 
1.153680 0.341403 2.203772 
1.163023 0.343167 2.204454 
1.175273 0.341749 2.204288 
1.185333 0.343915 2.204054 
1.208482 0.348015 2.203551 
1.217246 0.343259 2.203540 
1.224945 0.344708 2.203373 
-0.004725 0.351417 2.205472 
0.004565 0.355362 2.204388 
0.014670 0.357280 2.204169 
0.027290 0.359676 2.203898 
0.946686 0.357723 2.205172 
0.953832 0.354334 2.205138 
1.186261 0.356097 2.202366 
1.192286 0.355628 2.206262 
1.200656 0.351343 2.203589 
1.227105 0.354731 2.203056 
1.246981 0.359542 2.205250 
1.256404 0.358374 2.205132 
1.274375 0.357471 2.204870 
1.286945 0.356082 2.204710 
1.293240 0.359673 2.204504 
1.303011 0.353997 2.207197 
0.022240 0.361742 2.203949 
0.034840 0.362876 2.203703 
0.923325 0.368392 2.203558 
0.935775 0.363294 2.205212 
1.227575 0.362839 2.202815 
1.234382 0.364122 2.203548 
1.240865 0.360005 2.200019 
1.262673 0.361962 2.204925 
1.287165 0.360129 2.209920 
1.291352 0.362523 2.209778 
0.044786 0.373852 2.203322 
0.888368 0.377680 2.203075 
0.894755 0.379264 2.202053 
0.903817 0.379068 2.205346 
0.913916 0.372924 2.201873 
0.054686 0.381800 2.202996 
0.064669 0.383202 2.202788 
0.074582 0.386867 2.202540 
0.084686 0.385755 2.207379 
0.094676 0.386654 2.207183 
0.107135 0.389034 2.209406 
0.115618 0.386438 2.207646 
0.124873 0.386093 2.209155 
0.876367 0.386177 2.203064 
0.881439 0.381087 2.205693 
0.897291 0.381505 2.205396 
0.902840 0.381001 2.200138 
0.103497 0.394758 2.206024 
0.111877 0.393497 2.204236 
0.124509 0.391610 2.204044 
0.134346 0.395265 2.206290 
0.144981 0.398826 2.206850 
0.154298 0.397311 2.208377 
0.161594 0.399986 2.205696 
0.303032 0.399608 2.205637 
0.313212 0.399516 2.205454 
0.864016 0.395649 2.205601 
0.871306 0.391269 2.200454 
0.141516 0.400197 2.203567 
0.153988 0.400816 2.203328 
0.166332 0.403437 2.205537 
0.172771 0.406368 2.206185 
0.190791 0.409673 2.202484 
0.200962 0.408567 2.207287 
0.256209 0.408501 2.203799 
0.262943 0.408434 2.204508 
0.276426 0.408302 2.205927 
0.284529 0.404497 2.203370 
0.294889 0.402909 2.203212 
0.305975 0.402228 2.202187 
0.316142 0.402135 2.202000 
0.325632 0.401140 2.202682 
0.335355 0.404027 2.207454 
0.342264 0.408174 2.209728 
0.845106 0.408063 2.203054 
0.855346 0.402936 2.203007 
0.861729 0.400488 2.200396 
0.175735 0.410334 2.202745 
0.183148 0.411503 2.205065 
0.194037 0.410970 2.205704 
0.205375 0.414008 2.203372 
0.213762 0.413753 2.205288 
0.223033 0.412824 2.204314 
0.232953 0.413717 2.204116 
0.243116 0.412615 2.203954 
0.250722 0.412040 2.203825 
0.266005 0.410393 2.201092 
0.272051 0.415304 2.202543 
0.336702 0.410703 2.204774 
0.344907 0.412112 2.206257 
0.353755 0.414504 2.206869 
0.363943 0.414160 2.206694 
0.374287 0.413075 2.206530 
0.382962 0.416207 2.207127 
0.806392 0.418690 2.206001 
0.811354 0.419141 2.200847 
0.827275 0.418555 2.203099 
0.834911 0.413194 2.203099 
0.388158 0.423733 2.205193 
0.397097 0.429242 2.204901 
0.406960 0.426349 2.205616 
0.415586 0.429225 2.206214 
0.424310 0.427661 2.202785 
0.797151 0.427942 2.203398 
0.807597 0.421825 2.203369 
0.816203 0.423943 2.203999 
0.820510 0.421981 2.200608 
0.393421 0.430925 2.208228 
0.418262 0.432157 2.202795 
0.426965 0.430921 2.205965 
0.432171 0.437439 2.204887 
0.741036 0.439019 2.206622 
0.765381 0.435920 2.203768 
0.774214 0.437304 2.202738 
0.785305 0.437461 2.203362 
0.436399 0.440844 2.204730 
0.443177 0.443974 2.204528 
0.454384 0.445285 2.204785 
0.460190 0.446012 2.201710 
0.735599 0.446093 2.204040 
0.746237 0.445034 2.203876 
0.753828 0.445213 2.203732 
0.776036 0.441161 2.205925 
0.465757 0.453819 2.203880 
0.475259 0.455683 2.203662 
0.496693 0.459378 2.200734 
0.501849 0.458832 2.203095 
0.705962 0.456783 2.204300 
0.717464 0.453282 2.204182 
0.725690 0.451754 2.204073 
0.731354 0.450250 2.201532 
0.483770 0.461237 2.203372 
0.492862 0.461383 2.204015 
0.506308 0.460745 2.202968 
0.513183 0.462876 2.202793 
0.524979 0.465232 2.204955 
0.536560 0.468252 2.207102 
0.546287 0.466188 2.206167 
0.556975 0.466561 2.206770 
0.565591 0.468260 2.207381 
0.637224 0.467988 2.204448 
0.643350 0.469546 2.205108 
0.658955 0.467927 2.204865 
0.666631 0.465256 2.205611 
0.673945 0.463564 2.203888 
0.684753 0.463393 2.205003 
0.693280 0.465640 2.203479 
0.548465 0.470078 2.209269 
0.567460 0.472800 2.203982 
0.575431 0.471247 2.206310 
0.583756 0.476280 2.206023 
0.595282 0.478997 2.206548 
0.604730 0.475479 2.206471 
0.613767 0.475705 2.205489 
0.624181 0.474374 2.205328 
0.632307 0.472583 2.207668 
0.647145 0.472912 2.204952 
0.652159 0.472860 2.204859 
0.588724 0.483786 2.203314 
0.594174 0.482261 2.203252 
0.486831 -0.201285 2.216752 
0.530604 -0.201519 2.210396 
0.545216 -0.201034 2.214683 
0.555584 -0.202878 2.213319 
0.561864 -0.202269 2.216578 
0.574366 -0.202268 2.216574 
0.582662 -0.203002 2.214345 
0.618172 -0.200531 2.210533 
0.646328 -0.200412 2.213697 
0.433435 -0.191670 2.212016 
0.442834 -0.190685 2.212179 
0.455446 -0.194016 2.214799 
0.464847 -0.193032 2.214962 
0.474271 -0.194016 2.214800 
0.482646 -0.196189 2.213383 
0.496228 -0.195740 2.214511 
0.505626 -0.196971 2.214312 
0.515028 -0.196725 2.214354 
0.524449 -0.195494 2.214557 
0.534850 -0.198081 2.215179 
0.549414 -0.199549 2.210717 
0.566189 -0.197173 2.213213 
0.574442 -0.199548 2.210711 
0.586954 -0.199548 2.210707 
0.596583 -0.194753 2.214660 
0.606073 -0.193029 2.214942 
0.614271 -0.196108 2.215481 
0.624568 -0.198445 2.214036 
0.634203 -0.194505 2.214688 
0.646497 -0.197951 2.214107 
0.656170 -0.194387 2.217858 
0.666846 -0.191182 2.216276 
0.674970 -0.193633 2.211640 
0.681485 -0.190678 2.212123 
0.433278 -0.186024 2.219303 
0.446909 -0.185280 2.217314 
0.656464 -0.189695 2.212299 
0.662892 -0.187725 2.212620 
0.675451 -0.188478 2.218836 
0.686117 -0.185929 2.217138 
0.694558 -0.185145 2.216199 
0.700707 -0.186622 2.215951 
0.423642 -0.178867 2.214123 
0.707604 -0.179843 2.213891 
0.714291 -0.175903 2.214535 
0.365858 -0.160373 2.210726 
0.394468 -0.160645 2.217116 
0.404050 -0.161249 2.213810 
0.413689 -0.164204 2.213325 
0.724715 -0.166545 2.216069 
0.734689 -0.162113 2.216792 
0.740982 -0.162224 2.213563 
0.753837 -0.160363 2.210646 
0.766638 -0.160140 2.217091 
0.046948 -0.150491 2.212073 
0.059632 -0.150492 2.212086 
0.065983 -0.151258 2.218403 
0.072593 -0.152354 2.215014 
0.085022 -0.151261 2.218425 
0.094376 -0.150277 2.218597 
0.135836 -0.150502 2.212164 
0.142346 -0.151870 2.215167 
0.359048 -0.152491 2.212000 
0.365700 -0.158182 2.217512 
0.374047 -0.154973 2.215900 
0.384650 -0.154353 2.214929 
0.410328 -0.159168 2.217364 
0.747822 -0.157790 2.214280 
0.754173 -0.158171 2.217426 
0.762685 -0.157333 2.213270 
0.773348 -0.157184 2.217572 
0.793057 -0.151492 2.212050 
0.026545 -0.143592 2.213167 
0.035222 -0.145089 2.217237 
0.042828 -0.145948 2.216030 
0.054725 -0.147390 2.216881 
0.065794 -0.149508 2.212253 
0.078230 -0.148414 2.215663 
0.084841 -0.149510 2.212273 
0.094199 -0.148526 2.212442 
0.106382 -0.145710 2.216138 
0.115653 -0.143987 2.216429 
0.126483 -0.145174 2.215172 
0.135235 -0.147328 2.219127 
0.148190 -0.148423 2.215735 
0.154055 -0.144976 2.216303 
0.160291 -0.143992 2.216469 
0.358658 -0.146363 2.219456 
0.378053 -0.149536 2.212486 
0.774328 -0.148539 2.212545 
0.784012 -0.147936 2.215862 
0.793831 -0.146349 2.219339 
0.800544 -0.143502 2.216570 
0.005214 -0.132751 2.214900 
0.015696 -0.137186 2.214193 
0.165979 -0.138682 2.214107 
0.175374 -0.137206 2.214355 
0.184651 -0.134744 2.214761 
0.242588 -0.136720 2.214488 
0.319241 -0.131799 2.215333 
0.326026 -0.136726 2.214538 
0.335628 -0.136234 2.214622 
0.345422 -0.138697 2.214228 
0.351900 -0.139683 2.214071 
0.807811 -0.136713 2.214432 
-0.015861 -0.123495 2.213122 
-0.005730 -0.126346 2.215925 
0.193513 -0.128834 2.215726 
0.206186 -0.127357 2.215976 
0.215897 -0.127850 2.215904 
0.224929 -0.122045 2.213589 
0.235311 -0.128837 2.215759 
0.248024 -0.126973 2.212811 
0.254617 -0.128839 2.215773 
0.264898 -0.123984 2.214392 
0.273376 -0.122153 2.210344 
0.286117 -0.120183 2.210665 
0.299247 -0.123036 2.213477 
0.305783 -0.124021 2.213321 
0.312465 -0.126978 2.212850 
0.815594 -0.126860 2.216021 
0.835611 -0.121157 2.210406 
0.845039 -0.123021 2.213356 
-0.030972 -0.113147 2.214767 
-0.023891 -0.116104 2.214299 
0.253713 -0.119196 2.210802 
0.260175 -0.119196 2.210806 
0.276158 -0.118003 2.217542 
0.285344 -0.112093 2.218505 
0.292373 -0.118109 2.214268 
0.823148 -0.118977 2.217290 
0.833253 -0.116021 2.217760 
0.848935 -0.118975 2.217267 
0.856463 -0.111688 2.215168 
-0.064972 -0.105259 2.215993 
-0.056717 -0.103912 2.217314 
-0.044265 -0.101683 2.215500 
-0.039510 -0.104174 2.219477 
0.864342 -0.102428 2.213361 
0.870827 -0.102428 2.213355 
0.922659 -0.103202 2.219745 
1.038556 -0.104768 2.216084 
1.044070 -0.108709 2.215445 
1.053045 -0.106935 2.214629 
1.063136 -0.109303 2.212058 
1.071274 -0.102402 2.213147 
-0.093312 -0.094518 2.214401 
-0.084084 -0.092548 2.214725 
-0.072718 -0.099448 2.213639 
-0.054929 -0.092552 2.214756 
0.877962 -0.098485 2.213976 
0.914815 -0.092075 2.214961 
0.923392 -0.098480 2.213932 
0.934605 -0.090594 2.215176 
0.953244 -0.095027 2.214451 
0.965923 -0.096503 2.214202 
0.975037 -0.099459 2.213722 
0.985055 -0.097979 2.213947 
1.014954 -0.094526 2.214464 
1.023778 -0.098467 2.213827 
1.033250 -0.099451 2.213660 
1.078955 -0.097474 2.213924 
1.086413 -0.093531 2.214543 
1.093639 -0.090574 2.215006 
1.131680 -0.093525 2.214494 
-0.102002 -0.085647 2.215803 
0.885943 -0.089614 2.215380 
0.896142 -0.087149 2.215763 
0.905837 -0.087641 2.215675 
0.944553 -0.089607 2.215323 
0.996567 -0.089600 2.215268 
1.003706 -0.086643 2.215732 
1.010860 -0.083686 2.216195 
1.105150 -0.083673 2.216092 
1.124229 -0.085149 2.215836 
1.139770 -0.087611 2.215426 
-0.112243 -0.070073 2.211632 
1.116450 -0.077759 2.217021 
1.148990 -0.077360 2.213737 
1.157429 -0.070460 2.214820 
1.166893 -0.075256 2.212951 
1.174715 -0.078736 2.216801 
1.185620 -0.074399 2.214169 
-0.114482 -0.061993 2.219556 
1.165344 -0.065926 2.218851 
1.195915 -0.061980 2.219446 
1.204434 -0.058494 2.215549 
1.215852 -0.049355 2.214746 
1.224231 -0.043439 2.215663 
-0.128863 -0.030637 2.217782 
1.236248 -0.036537 2.216731 
1.246777 -0.034564 2.217030 
1.256199 -0.024887 2.211784 
-0.133913 -0.010110 2.214185 
1.258063 -0.019775 2.219332 
1.265663 -0.016011 2.213139 
1.276127 -0.004176 2.214948 
1.284097 -0.000230 2.215547 
1.293220 0.007574 2.213320 
1.302217 0.014479 2.214363 
1.312069 0.023441 2.219159 
1.335586 0.023769 2.212314 
1.314369 0.031166 2.213445 
1.330604 0.039059 2.214623 
1.348634 0.032155 2.213570 
1.355078 0.031169 2.213417 
1.363596 0.036103 2.214154 
-0.154377 0.043973 2.215525 
1.325120 0.043005 2.215222 
1.372490 0.042022 2.215041 
1.388249 0.047943 2.215923 
1.395080 0.047943 2.215919 
1.404421 0.045478 2.215542 
1.415943 0.048931 2.216056 
1.382826 0.051888 2.216521 
1.411288 0.055678 2.210118 
1.426095 0.058225 2.213968 
1.406238 0.060612 2.210851 
1.455439 0.063576 2.211265 
1.463460 0.066120 2.215132 
1.438891 0.074013 2.216319 
1.447665 0.079365 2.213603 
1.454833 0.070561 2.215796 
1.472654 0.072458 2.212571 
1.480332 0.074432 2.212860 
1.665877 0.078383 2.213417 
1.675883 0.077396 2.213272 
1.746848 0.079367 2.213587 
1.489581 0.080354 2.213732 
1.499649 0.088249 2.214895 
1.541779 0.089238 2.215028 
1.589693 0.087265 2.214727 
1.597094 0.088252 2.214872 
1.637643 0.085291 2.214434 
1.656238 0.087759 2.214799 
1.686124 0.084304 2.214294 
1.693128 0.084304 2.214296 
1.704587 0.086277 2.214590 
1.715591 0.087264 2.214739 
1.723577 0.089237 2.215033 
1.734135 0.089237 2.215037 
1.742750 0.085288 2.214458 
1.754861 0.081340 2.213881 
-0.188834 0.097106 2.216416 
-0.174101 0.094144 2.215990 
1.508970 0.094171 2.215767 
1.516734 0.096145 2.216056 
1.524510 0.098119 2.216346 
1.533765 0.095159 2.215905 
1.549563 0.091212 2.215318 
1.559017 0.097133 2.216191 
1.578716 0.094173 2.215749 
1.584851 0.092199 2.215457 
1.604935 0.090226 2.215163 
1.614098 0.095160 2.215892 
1.624814 0.095654 2.215964 
1.632883 0.090226 2.215162 
1.646873 0.090226 2.215163 
1.767354 0.092196 2.215488 
-0.183156 0.102039 2.217151 
-0.114056 0.105004 2.213955 
1.568088 0.102068 2.216918 
1.574251 0.100094 2.216625 
1.781655 0.106927 2.214123 
1.794887 0.104952 2.213840 
1.802773 0.106010 2.217546 
1.811434 0.108970 2.217988 
-0.113289 0.116158 2.219395 
1.792031 0.113342 2.215066 
1.804795 0.110803 2.211149 
1.816525 0.119688 2.212441 
-0.107328 0.122748 2.213486 
1.783305 0.128548 2.216248 
-0.106592 0.133898 2.218881 
1.786995 0.132913 2.216063 
1.830360 0.132521 2.214305 
1.848422 0.139430 2.215317 
1.855669 0.139429 2.215322 
1.862399 0.138441 2.215184 
-0.100486 0.143524 2.215756 
1.625431 0.147614 2.211617 
1.632652 0.147253 2.214540 
1.759936 0.147616 2.215915 
1.842727 0.142392 2.215741 
-0.094146 0.157704 2.215349 
1.613584 0.154106 2.214585 
1.621132 0.153271 2.217512 
1.636341 0.154307 2.213264 
1.699965 0.159357 2.216277 
1.705845 0.157874 2.212222 
1.715507 0.157732 2.216135 
1.724479 0.155515 2.216095 
1.730375 0.157053 2.215971 
1.743148 0.154674 2.215891 
1.777941 0.152261 2.215548 
1.876497 0.151274 2.217050 
1.883796 0.151274 2.217056 
1.565073 0.164358 2.214928 
1.577469 0.162786 2.213813 
1.594997 0.165032 2.217473 
1.630115 0.168193 2.216893 
1.640911 0.163121 2.210923 
1.656085 0.161462 2.210766 
1.663952 0.164690 2.210560 
1.688755 0.164400 2.213245 
1.578616 0.173138 2.214455 
1.585970 0.172290 2.211408 
1.594470 0.170031 2.211358 
1.629866 0.177243 2.216595 
1.639260 0.174056 2.216578 
1.645424 0.170581 2.213622 
1.652906 0.174276 2.216391 
1.662838 0.179203 2.216100 
1.676165 0.171329 2.216187 
1.766385 0.174408 2.214974 
1.776370 0.171274 2.214957 
-0.141135 0.189261 2.218246 
-0.136374 0.181629 2.212845 
-0.087263 0.183020 2.217444 
1.555733 0.185694 2.217319 
1.652594 0.183321 2.216096 
1.661239 0.181080 2.210096 
-0.143305 0.196124 2.215401 
-0.086733 0.194162 2.211716 
1.504688 0.192189 2.217818 
-0.152251 0.206744 2.216243 
-0.145383 0.204005 2.212566 
1.524256 0.205546 2.214171 
-0.170594 0.219880 2.215387 
-0.163083 0.215011 2.215358 
-0.155558 0.210146 2.212625 
-0.080213 0.214906 2.216608 
1.498828 0.217873 2.217028 
1.506031 0.212475 2.214206 
1.515236 0.213301 2.216951 
-0.175811 0.220416 2.218153 
-0.079813 0.224020 2.211006 
1.485724 0.226780 2.211153 
1.503438 0.220309 2.211097 
1.516337 0.220462 2.210904 
1.479540 0.235292 2.216710 
-0.073526 0.243233 2.213190 
1.447985 0.243544 2.214033 
1.464614 0.242520 2.213824 
-0.067683 0.255353 2.212830 
1.417567 0.250885 2.217075 
1.446420 0.254490 2.216531 
-0.061768 0.269996 2.215052 
1.411301 0.268467 2.216563 
1.423006 0.269521 2.216356 
1.444153 0.261852 2.210662 
1.396212 0.272155 2.211054 
1.420893 0.272360 2.210676 
-0.055948 0.284127 2.217252 
-0.050414 0.293194 2.216940 
-0.045053 0.297707 2.219340 
1.375731 0.292491 2.210718 
1.396734 0.297405 2.210245 
-0.045004 0.300740 2.214070 
-0.039582 0.307272 2.219006 
1.066643 0.309031 2.215199 
1.075536 0.308319 2.215071 
1.375519 0.301540 2.215954 
1.385568 0.304465 2.210189 
1.390020 0.306877 2.215558 
-0.036849 0.313569 2.216218 
1.027153 0.319590 2.215528 
1.035295 0.318308 2.213639 
1.046315 0.315266 2.215341 
1.052727 0.313827 2.215279 
1.060200 0.310467 2.215262 
1.085010 0.311692 2.214798 
1.094492 0.315063 2.217222 
1.105299 0.316036 2.217009 
1.115126 0.317087 2.217708 
1.335115 0.316055 2.210589 
1.345116 0.318969 2.213072 
1.353423 0.315684 2.213063 
1.375129 0.310583 2.210153 
-0.034098 0.320876 2.213429 
-0.026298 0.324852 2.215771 
1.006095 0.327776 2.215620 
1.015341 0.326088 2.215517 
1.025571 0.322477 2.210103 
1.117135 0.326679 2.215550 
1.123189 0.329242 2.213577 
1.140548 0.328783 2.218670 
1.334534 0.325577 2.213017 
-0.018445 0.333876 2.215417 
0.979383 0.336466 2.210487 
0.989506 0.338381 2.215556 
0.998007 0.332596 2.212943 
1.005931 0.333311 2.210117 
1.015159 0.331621 2.210007 
1.125508 0.331799 2.217024 
1.134840 0.331969 2.215076 
1.145908 0.334056 2.215721 
1.198964 0.336057 2.217468 
1.319445 0.338835 2.215503 
1.349122 0.330416 2.215351 
-0.013211 0.341908 2.215135 
-0.004664 0.349399 2.213964 
0.965645 0.347325 2.213039 
0.973584 0.342495 2.213050 
0.983476 0.342882 2.211985 
1.148105 0.344587 2.215323 
1.154890 0.345869 2.216056 
1.165232 0.344366 2.213716 
1.175553 0.346052 2.212159 
1.184148 0.344472 2.213846 
1.192941 0.341062 2.214714 
1.203617 0.344544 2.213089 
1.224454 0.345662 2.214056 
1.232155 0.347111 2.213885 
-0.007984 0.350441 2.217377 
0.004661 0.354354 2.214526 
0.015607 0.357272 2.213424 
0.025711 0.357173 2.213250 
0.919276 0.358276 2.210885 
0.925432 0.353114 2.214438 
0.932868 0.356472 2.214197 
0.944395 0.357006 2.213100 
0.954852 0.356098 2.213820 
1.167291 0.350344 2.217473 
1.172076 0.351783 2.217345 
1.204185 0.355009 2.216719 
1.210947 0.353270 2.211349 
1.229521 0.359982 2.210833 
1.236013 0.354513 2.216236 
1.243543 0.356199 2.216059 
1.254035 0.353365 2.213329 
1.262736 0.356247 2.213984 
1.273007 0.355324 2.212965 
1.284358 0.354027 2.213368 
1.293365 0.359674 2.215175 
1.302126 0.355422 2.215190 
0.012290 0.360331 2.216777 
0.022372 0.360230 2.216605 
0.034934 0.364135 2.213764 
0.910875 0.364572 2.216060 
0.934411 0.360646 2.210544 
1.237025 0.361666 2.210659 
1.263370 0.361012 2.210264 
0.044874 0.375111 2.213332 
0.054923 0.376265 2.215636 
0.062415 0.377947 2.215463 
0.907114 0.372304 2.210672 
0.054747 0.382806 2.210476 
0.065612 0.382607 2.211956 
0.074722 0.385610 2.212559 
0.085746 0.382062 2.216622 
0.094798 0.386152 2.217192 
0.102243 0.388584 2.219495 
0.117335 0.386923 2.214276 
0.122335 0.387875 2.216665 
0.865530 0.388720 2.214340 
0.876013 0.387144 2.213347 
0.887036 0.386372 2.213176 
0.896904 0.382472 2.213129 
0.105431 0.391227 2.216041 
0.113811 0.390971 2.217564 
0.127102 0.392336 2.216465 
0.133651 0.394773 2.217118 
0.144290 0.398417 2.218493 
0.154523 0.395308 2.215908 
0.163599 0.397132 2.216531 
0.247371 0.399630 2.216652 
0.276620 0.395543 2.214578 
0.285749 0.396785 2.213546 
0.295779 0.397688 2.213342 
0.305947 0.397845 2.215663 
0.853499 0.395701 2.216035 
0.860759 0.391319 2.210917 
0.136578 0.400752 2.213590 
0.143933 0.402926 2.213406 
0.166488 0.402436 2.213019 
0.173869 0.404358 2.215329 
0.183925 0.404003 2.215162 
0.193708 0.406648 2.214918 
0.204102 0.403047 2.214831 
0.213854 0.405940 2.214581 
0.224002 0.405090 2.214423 
0.234664 0.407225 2.215007 
0.243063 0.406974 2.213207 
0.255214 0.404033 2.214731 
0.264614 0.402948 2.213759 
0.272183 0.402875 2.211124 
0.305430 0.400827 2.210578 
0.315182 0.403467 2.212840 
0.325105 0.404864 2.212624 
0.334990 0.403684 2.215983 
0.345721 0.403438 2.217305 
0.357771 0.407043 2.216987 
0.365597 0.405983 2.216877 
0.372880 0.407897 2.219192 
0.834127 0.407401 2.214294 
0.844655 0.403476 2.213386 
0.851239 0.400543 2.210805 
0.230808 0.411249 2.211655 
0.251050 0.410046 2.211323 
0.352046 0.410560 2.216984 
0.375595 0.411168 2.215711 
0.383109 0.415877 2.215441 
0.806062 0.419659 2.216078 
0.815799 0.415245 2.213521 
0.824944 0.412288 2.213454 
0.835420 0.412225 2.210730 
0.385452 0.421126 2.218564 
0.394898 0.424162 2.215822 
0.406766 0.427585 2.213027 
0.417823 0.427066 2.214496 
0.423958 0.429636 2.212660 
0.776515 0.428090 2.216323 
0.796824 0.428911 2.213424 
0.805592 0.420630 2.211008 
0.405852 0.432035 2.217866 
0.413685 0.430723 2.217767 
0.426909 0.431579 2.215853 
0.435296 0.435191 2.214770 
0.740688 0.439991 2.211583 
0.767237 0.437842 2.213667 
0.775901 0.435597 2.213588 
0.785499 0.437217 2.213362 
0.443325 0.443727 2.214378 
0.454329 0.445876 2.214606 
0.460038 0.446997 2.211523 
0.735727 0.443911 2.214864 
0.746327 0.445033 2.213814 
0.753719 0.445699 2.213656 
0.760466 0.441769 2.213660 
0.776082 0.441161 2.210909 
0.465415 0.455544 2.213632 
0.475796 0.453958 2.213491 
0.484899 0.457298 2.213228 
0.493835 0.458101 2.213859 
0.501649 0.459815 2.210409 
0.513654 0.458542 2.211856 
0.521938 0.458617 2.210073 
0.706338 0.456052 2.214178 
0.716461 0.453938 2.214885 
0.723881 0.452255 2.213158 
0.496518 0.460362 2.210487 
0.504741 0.460763 2.213583 
0.514507 0.461637 2.218264 
0.525313 0.464459 2.217165 
0.536650 0.468251 2.216841 
0.543965 0.468660 2.214262 
0.568779 0.468877 2.213806 
0.573799 0.468823 2.216154 
0.638765 0.468621 2.214991 
0.658511 0.469390 2.214610 
0.674511 0.466797 2.214406 
0.685147 0.465234 2.214264 
0.695062 0.465623 2.214076 
0.545742 0.473858 2.217309 
0.554213 0.475881 2.216280 
0.564359 0.472509 2.217016 
0.578016 0.471218 2.216002 
0.584003 0.475790 2.215748 
0.594137 0.475190 2.215586 
0.604118 0.475080 2.215410 
0.613938 0.475460 2.215219 
0.623003 0.478040 2.214972 
0.632032 0.473560 2.214954 
0.645252 0.471473 2.214782 
0.652425 0.472371 2.214624 
0.665244 0.471508 2.214420 
0.486832 -0.202903 2.225955 
0.496211 -0.203641 2.225827 
0.505611 -0.200818 2.229473 
0.514987 -0.202294 2.229217 
0.524394 -0.200818 2.229471 
0.530656 -0.200067 2.223275 
0.549436 -0.200817 2.229467 
0.555610 -0.203394 2.225861 
0.565021 -0.202409 2.226026 
0.574363 -0.203393 2.225858 
0.582657 -0.204252 2.224656 
0.596286 -0.202408 2.226016 
0.605587 -0.203883 2.225755 
0.618166 -0.202032 2.222912 
0.455432 -0.194161 2.224282 
0.464856 -0.195146 2.224115 
0.474271 -0.195146 2.224116 
0.480559 -0.198099 2.223613 
0.505625 -0.198099 2.223613 
0.515035 -0.197114 2.223780 
0.524485 -0.194161 2.224282 
0.534883 -0.197943 2.227855 
0.545311 -0.198349 2.225675 
0.587117 -0.197864 2.229966 
0.612154 -0.197979 2.226770 
0.624652 -0.198094 2.223579 
0.634360 -0.193173 2.224413 
0.643700 -0.194156 2.224240 
0.650179 -0.191203 2.224739 
0.687920 -0.190216 2.224882 
0.417330 -0.180382 2.226621 
0.445842 -0.185303 2.225790 
0.656602 -0.189234 2.225071 
0.666483 -0.183328 2.226071 
0.676012 -0.182343 2.226232 
0.681810 -0.188248 2.225222 
0.694641 -0.185294 2.225716 
0.413928 -0.172619 2.224741 
0.425675 -0.177504 2.224987 
0.436205 -0.177429 2.227129 
0.705967 -0.176183 2.225134 
0.714867 -0.171133 2.224913 
0.404110 -0.164252 2.226151 
0.410535 -0.165840 2.222679 
0.724856 -0.166591 2.228878 
0.734363 -0.166590 2.228870 
0.742997 -0.164441 2.224949 
0.091036 -0.150057 2.225073 
0.145091 -0.150065 2.225134 
0.365649 -0.157961 2.223983 
0.375059 -0.155008 2.224482 
0.384676 -0.155993 2.224320 
0.394306 -0.157471 2.224076 
0.725520 -0.159430 2.223668 
0.735211 -0.157952 2.223907 
0.754167 -0.158935 2.223727 
0.763872 -0.157457 2.223965 
0.773586 -0.155979 2.224204 
0.025760 -0.140419 2.220142 
0.035514 -0.142173 2.226326 
0.045065 -0.142174 2.226338 
0.055173 -0.145129 2.225856 
0.065446 -0.149069 2.225208 
0.074976 -0.149070 2.225219 
0.084335 -0.148087 2.225395 
0.096382 -0.144151 2.226070 
0.105367 -0.140706 2.226658 
0.116143 -0.148092 2.225432 
0.125769 -0.148585 2.225360 
0.135394 -0.149079 2.225288 
0.154064 -0.146128 2.225803 
0.160441 -0.146128 2.225810 
0.358773 -0.149100 2.225464 
0.784571 -0.144656 2.226092 
0.794344 -0.143178 2.226330 
0.014798 -0.133908 2.224445 
0.024976 -0.137248 2.227139 
0.121244 -0.139447 2.220412 
0.165850 -0.138852 2.223796 
0.174613 -0.132699 2.224828 
0.184399 -0.133931 2.224632 
0.192745 -0.132419 2.225972 
0.242172 -0.133551 2.221496 
0.317247 -0.134800 2.223510 
0.325717 -0.133452 2.224823 
0.335404 -0.134331 2.227927 
0.344995 -0.132960 2.224906 
0.351669 -0.136899 2.224255 
0.804738 -0.136884 2.224128 
-0.060870 -0.124436 2.229173 
-0.054933 -0.122468 2.229511 
-0.048755 -0.121484 2.229684 
-0.016278 -0.122685 2.223014 
-0.003036 -0.125044 2.225899 
0.003886 -0.127506 2.225497 
0.196481 -0.127637 2.222432 
0.205684 -0.124332 2.226244 
0.215498 -0.125564 2.226047 
0.226146 -0.124874 2.227259 
0.234994 -0.127043 2.225821 
0.244554 -0.126059 2.225991 
0.253922 -0.122718 2.223289 
0.266741 -0.121735 2.223461 
0.296087 -0.125325 2.226148 
0.305985 -0.128034 2.225708 
0.312210 -0.125468 2.229399 
0.335107 -0.129126 2.222284 
0.809153 -0.128408 2.228791 
0.815726 -0.126649 2.222565 
-0.070343 -0.110859 2.224895 
-0.062744 -0.115784 2.224093 
-0.057015 -0.112830 2.224587 
-0.030631 -0.115789 2.224133 
-0.023988 -0.116774 2.223978 
-0.010503 -0.119731 2.223508 
0.221201 -0.118776 2.223913 
0.260087 -0.119764 2.223780 
0.275663 -0.113364 2.224846 
0.285348 -0.112872 2.224934 
0.823705 -0.115814 2.224343 
0.833900 -0.112366 2.224901 
0.846310 -0.115811 2.224320 
-0.084654 -0.104947 2.225851 
-0.077252 -0.108888 2.225211 
-0.052408 -0.104952 2.225892 
-0.046406 -0.102983 2.226224 
-0.039057 -0.106923 2.225584 
0.857225 -0.107931 2.225607 
0.916720 -0.100247 2.220231 
0.922652 -0.103983 2.226186 
0.949119 -0.101025 2.226642 
0.955597 -0.101024 2.226634 
0.961879 -0.101617 2.223243 
0.975226 -0.100036 2.226774 
1.013402 -0.102985 2.226240 
1.020084 -0.101999 2.226394 
1.033242 -0.100232 2.220100 
1.056610 -0.102062 2.224149 
1.065176 -0.102094 2.223038 
-0.094032 -0.092735 2.224555 
-0.086593 -0.096286 2.220700 
-0.076416 -0.098258 2.220392 
0.865511 -0.096213 2.224237 
0.874210 -0.095917 2.223177 
0.885441 -0.093355 2.221380 
0.913748 -0.093218 2.225769 
0.933323 -0.092887 2.225802 
0.947026 -0.094725 2.224391 
0.955995 -0.098272 2.220507 
0.969254 -0.097184 2.223960 
0.975233 -0.099255 2.220326 
0.985509 -0.096935 2.223981 
0.996344 -0.091762 2.224812 
1.004785 -0.098062 2.227062 
1.015386 -0.093338 2.221238 
1.025596 -0.096225 2.222955 
1.035512 -0.091163 2.228161 
1.044199 -0.095594 2.227419 
1.076205 -0.096676 2.223911 
1.086277 -0.095197 2.224140 
1.094855 -0.095490 2.225176 
1.134966 -0.094451 2.224205 
1.144043 -0.097056 2.227051 
1.152434 -0.090161 2.228177 
0.879737 -0.089216 2.228668 
0.886756 -0.086260 2.229147 
0.895412 -0.086063 2.224759 
0.904284 -0.085339 2.227073 
0.938600 -0.087437 2.222282 
0.944925 -0.088421 2.222116 
1.003484 -0.088414 2.222050 
1.010419 -0.086442 2.222362 
1.105621 -0.087018 2.224352 
1.114613 -0.086227 2.228873 
1.124481 -0.085341 2.225707 
1.146241 -0.088393 2.221883 
1.163548 -0.085235 2.228975 
1.174131 -0.082279 2.229449 
-0.105942 -0.070668 2.224827 
1.116182 -0.079531 2.223355 
1.155207 -0.079525 2.223310 
1.165936 -0.076076 2.223856 
1.174992 -0.078537 2.223446 
1.182352 -0.075974 2.227161 
1.195908 -0.062771 2.225977 
1.205720 -0.062770 2.225966 
-0.116969 -0.052933 2.227688 
1.214650 -0.054490 2.223955 
1.224642 -0.054393 2.227302 
1.223923 -0.045222 2.222085 
1.233794 -0.045619 2.225356 
1.245528 -0.040105 2.229594 
1.239239 -0.038322 2.223167 
1.245535 -0.039307 2.223004 
-0.130621 -0.024541 2.225501 
1.255252 -0.029450 2.224563 
1.267857 -0.009915 2.220865 
1.273561 -0.002926 2.225359 
1.284411 -0.000055 2.222392 
1.278967 0.003075 2.229717 
1.286003 0.004062 2.229867 
1.296274 0.015720 2.224848 
1.304972 0.021636 2.225765 
1.315778 0.023609 2.226064 
1.327928 0.029525 2.226979 
-0.153351 0.039201 2.221741 
1.325540 0.033305 2.220663 
1.335556 0.032402 2.223968 
1.345998 0.033142 2.224075 
1.356102 0.032896 2.224032 
1.364282 0.036842 2.224633 
1.371787 0.039226 2.221538 
1.391854 0.037418 2.228162 
-0.154109 0.041333 2.229013 
1.376414 0.041853 2.228867 
1.384826 0.046703 2.226147 
1.397411 0.044159 2.222277 
1.404601 0.044733 2.225826 
-0.123158 0.051758 2.221009 
1.390018 0.052048 2.223494 
1.419594 0.057967 2.224383 
1.428667 0.063885 2.225286 
1.437401 0.068817 2.226037 
-0.170225 0.077664 2.227633 
1.446726 0.075645 2.223569 
1.453828 0.076556 2.220198 
1.468036 0.076708 2.227232 
1.473611 0.073674 2.223256 
1.481875 0.076709 2.227225 
1.455706 0.080652 2.227844 
1.462634 0.080653 2.227840 
1.483814 0.082477 2.221076 
1.496559 0.087977 2.225425 
1.542185 0.089386 2.222095 
1.590548 0.088400 2.221937 
1.625451 0.088401 2.221934 
1.635711 0.087907 2.221860 
1.666052 0.085021 2.224951 
1.674704 0.081494 2.220900 
1.686428 0.088498 2.226655 
1.693599 0.084034 2.224803 
1.704590 0.085020 2.224957 
1.715356 0.085513 2.225036 
1.723581 0.087979 2.225412 
1.730618 0.087979 2.225415 
1.745586 0.085158 2.223826 
1.757331 0.085437 2.221523 
-0.189617 0.099221 2.223825 
-0.175125 0.097247 2.223540 
-0.120553 0.090296 2.225842 
1.493867 0.090370 2.222260 
1.505485 0.092910 2.226167 
1.517925 0.098263 2.223440 
1.534775 0.096784 2.223212 
1.554907 0.094812 2.222909 
1.577367 0.095354 2.225340 
1.586124 0.093899 2.226297 
1.595964 0.092420 2.226071 
1.606451 0.092419 2.226072 
1.613661 0.092913 2.226145 
1.622844 0.092444 2.227248 
1.634659 0.092493 2.229608 
1.645887 0.091787 2.227149 
1.655004 0.091433 2.225920 
1.661786 0.090940 2.225846 
1.675814 0.090520 2.229310 
1.739115 0.090937 2.225869 
1.753720 0.091503 2.229490 
1.770333 0.097275 2.223309 
1.792625 0.099246 2.223619 
-0.182889 0.100207 2.223980 
1.526911 0.103197 2.224180 
1.567670 0.100238 2.223723 
1.784722 0.104673 2.224428 
1.805312 0.110098 2.225257 
1.812968 0.111084 2.225411 
-0.112973 0.120214 2.224961 
1.825756 0.122360 2.223540 
1.833465 0.122921 2.227204 
1.854067 0.125833 2.225275 
1.864407 0.126864 2.227823 
1.874467 0.125809 2.224096 
-0.103731 0.134151 2.224453 
-0.095091 0.137948 2.229829 
1.752872 0.138904 2.228522 
1.837066 0.130680 2.221205 
1.846618 0.134693 2.225387 
1.852031 0.131665 2.221362 
1.865979 0.130677 2.221228 
1.876397 0.136597 2.222110 
1.885267 0.138701 2.229620 
-0.094983 0.140987 2.224131 
-0.088958 0.148581 2.229429 
1.645066 0.149365 2.229387 
1.666067 0.149238 2.229136 
1.693939 0.145194 2.228959 
1.715980 0.148690 2.228571 
1.744966 0.148280 2.222168 
1.768391 0.146355 2.221963 
1.772817 0.149778 2.221794 
1.802248 0.141332 2.227899 
-0.115943 0.159258 2.229588 
1.576480 0.158320 2.223930 
1.586072 0.154644 2.226933 
1.598485 0.153240 2.227822 
1.606220 0.154948 2.223657 
1.615454 0.156282 2.223488 
1.625446 0.156678 2.223344 
1.634868 0.153490 2.226350 
1.650606 0.159945 2.228915 
1.674631 0.156058 2.228775 
1.684745 0.156470 2.222603 
1.715413 0.153682 2.225361 
1.721286 0.155219 2.225231 
1.735572 0.150960 2.225225 
1.747182 0.157214 2.223852 
1.755238 0.157768 2.227793 
1.771769 0.159759 2.227541 
1.782519 0.155689 2.224526 
-0.088378 0.160736 2.223522 
1.566692 0.162474 2.229872 
1.573710 0.162098 2.229795 
1.586279 0.163234 2.223621 
1.604420 0.161837 2.229413 
1.614729 0.161757 2.229287 
1.621866 0.161391 2.229212 
1.642650 0.161245 2.228962 
1.654013 0.164289 2.222708 
1.660589 0.164876 2.228606 
1.689743 0.163467 2.228316 
1.692020 0.166364 2.224167 
1.719923 0.161148 2.222013 
1.765150 0.163199 2.224448 
1.781283 0.165662 2.221150 
-0.081918 0.178450 2.228480 
1.553327 0.171353 2.229701 
1.625026 0.174786 2.222700 
1.634876 0.179705 2.222399 
1.649989 0.178041 2.222268 
1.662480 0.171100 2.222359 
1.624757 0.183835 2.222380 
-0.140928 0.190784 2.226400 
-0.081167 0.194653 2.222547 
-0.152965 0.207595 2.226159 
-0.145448 0.201466 2.226194 
1.503257 0.203145 2.223294 
1.519536 0.207634 2.222907 
1.527799 0.205353 2.222878 
1.538220 0.200242 2.222922 
-0.173547 0.215572 2.226299 
-0.162944 0.215266 2.226126 
-0.074557 0.218429 2.227244 
1.459249 0.219341 2.229081 
1.486758 0.216782 2.223023 
1.509899 0.211807 2.222886 
1.460404 0.226507 2.223034 
1.493394 0.225439 2.228381 
-0.074040 0.230578 2.221524 
1.465565 0.237051 2.225441 
1.472983 0.235699 2.228252 
1.493849 0.233545 2.228058 
-0.067949 0.246244 2.226360 
1.422345 0.244253 2.222920 
1.449999 0.249761 2.228010 
-0.067780 0.251304 2.220896 
1.426109 0.256684 2.228064 
1.448552 0.251652 2.222276 
-0.061699 0.268985 2.225621 
1.432434 0.265319 2.227638 
-0.061670 0.271008 2.220296 
1.395080 0.274054 2.227808 
1.406334 0.275574 2.224796 
1.421033 0.272363 2.221902 
-0.055925 0.282610 2.225145 
-0.050369 0.292183 2.224785 
-0.045005 0.296696 2.227169 
1.395231 0.291206 2.227128 
-0.039547 0.305756 2.226815 
1.066142 0.306627 2.222497 
1.072651 0.308556 2.223219 
1.388406 0.300678 2.221321 
-0.034207 0.312286 2.226536 
1.029298 0.315741 2.226370 
1.036670 0.317667 2.223485 
1.046135 0.315747 2.223396 
1.053328 0.312866 2.223382 
1.060307 0.310467 2.226054 
1.077553 0.313365 2.223857 
1.085777 0.315534 2.222742 
1.096460 0.316745 2.225216 
1.105382 0.316036 2.225097 
1.115641 0.317967 2.224855 
1.347860 0.315176 2.221368 
1.355727 0.316889 2.223927 
1.369559 0.310072 2.221244 
-0.027088 0.323513 2.225234 
0.994076 0.329709 2.226425 
1.006078 0.324406 2.224646 
1.015782 0.323601 2.222729 
1.023540 0.321274 2.223574 
1.118527 0.327799 2.229798 
1.124601 0.327007 2.224364 
1.333678 0.327003 2.223851 
1.340653 0.325612 2.226529 
-0.023468 0.330892 2.228369 
-0.018252 0.339431 2.222926 
0.979045 0.337430 2.226382 
0.986216 0.337742 2.222714 
0.998833 0.331151 2.220962 
1.124365 0.332357 2.229518 
1.134258 0.334762 2.226587 
1.143832 0.336129 2.225490 
1.153226 0.336299 2.228901 
1.196634 0.339875 2.222727 
-0.014789 0.341756 2.226197 
-0.005437 0.346127 2.225066 
0.007281 0.348781 2.227309 
0.930260 0.347153 2.226838 
0.944684 0.347445 2.224822 
0.951208 0.349038 2.226407 
0.973209 0.341612 2.222790 
1.149915 0.341719 2.223396 
1.156965 0.345712 2.224905 
1.162298 0.349384 2.225568 
1.184056 0.346304 2.222681 
1.197860 0.347042 2.222436 
1.225031 0.344948 2.224767 
1.236077 0.345690 2.224573 
1.243487 0.347617 2.224386 
1.271188 0.349604 2.226572 
1.285887 0.349415 2.226365 
1.296416 0.346834 2.226316 
1.300643 0.349230 2.226159 
1.316231 0.343581 2.220774 
0.003901 0.352513 2.223876 
0.014873 0.354760 2.224468 
0.024959 0.355922 2.221731 
0.924711 0.351025 2.223278 
0.935161 0.351966 2.223062 
0.948757 0.353863 2.221007 
0.955419 0.355133 2.222599 
0.961202 0.350946 2.226163 
1.166205 0.352256 2.225395 
1.173571 0.352582 2.226152 
1.181757 0.354661 2.227712 
1.194296 0.352767 2.225824 
1.204627 0.354453 2.224714 
1.211733 0.352318 2.227349 
1.245197 0.353820 2.224118 
1.255100 0.351939 2.224043 
1.265374 0.352444 2.222982 
1.275687 0.351523 2.223755 
1.282926 0.353690 2.220889 
1.292953 0.356104 2.220650 
1.305381 0.353691 2.224127 
0.024998 0.360961 2.226640 
0.035024 0.365646 2.223807 
0.047612 0.368541 2.226028 
0.056044 0.365941 2.224285 
0.062704 0.369899 2.225732 
0.903022 0.369905 2.226425 
0.912109 0.362156 2.223957 
0.044163 0.372938 2.222604 
0.052572 0.370000 2.220867 
0.065907 0.374895 2.222178 
0.075914 0.377475 2.223603 
0.082569 0.378746 2.222618 
0.888131 0.378646 2.226343 
0.893728 0.378142 2.226266 
0.900206 0.375705 2.221063 
0.072430 0.380861 2.220224 
0.087524 0.382212 2.227438 
0.094941 0.385148 2.227223 
0.104068 0.387061 2.227841 
0.147509 0.389625 2.228691 
0.284477 0.388846 2.226374 
0.299736 0.389212 2.226097 
0.306627 0.388491 2.222640 
0.312567 0.388854 2.225886 
0.868215 0.386937 2.223791 
0.873800 0.386429 2.226289 
0.881947 0.384141 2.222799 
0.891846 0.382009 2.220982 
0.107096 0.393049 2.224272 
0.114622 0.393220 2.226633 
0.124592 0.394117 2.226434 
0.134611 0.394263 2.226262 
0.143821 0.394001 2.225282 
0.154880 0.391803 2.225996 
0.164960 0.391702 2.225826 
0.174901 0.393353 2.225603 
0.184904 0.394253 2.225404 
0.194694 0.397402 2.225134 
0.205064 0.394555 2.225046 
0.215513 0.399109 2.223888 
0.227328 0.398827 2.224528 
0.235667 0.399577 2.225192 
0.245130 0.397909 2.224250 
0.255268 0.397813 2.224077 
0.265615 0.396224 2.223946 
0.276028 0.394389 2.223825 
0.287171 0.393460 2.222823 
0.295446 0.394877 2.222634 
0.317470 0.395179 2.222241 
0.326432 0.397663 2.225352 
0.338806 0.399785 2.225065 
0.852022 0.399090 2.223618 
0.861101 0.390834 2.223770 
0.871950 0.390300 2.221030 
0.211935 0.401472 2.227202 
0.221997 0.401372 2.224538 
0.232186 0.400275 2.221899 
0.325134 0.405112 2.220123 
0.333278 0.402312 2.225077 
0.346941 0.401860 2.226527 
0.355321 0.407066 2.227037 
0.823575 0.409638 2.221180 
0.833086 0.405957 2.221146 
0.843650 0.405897 2.223507 
0.364510 0.412177 2.226698 
0.372992 0.416302 2.225575 
0.390891 0.419592 2.225980 
0.807402 0.416749 2.223739 
0.815521 0.414118 2.224536 
0.825061 0.412287 2.226131 
0.833721 0.412396 2.224285 
0.375426 0.421222 2.228678 
0.382641 0.422882 2.226010 
0.395444 0.422018 2.225813 
0.403651 0.426184 2.226022 
0.416552 0.429463 2.225186 
0.777199 0.426632 2.223898 
0.781585 0.428537 2.226257 
0.798577 0.425030 2.221064 
0.800727 0.420178 2.226248 
0.408578 0.431267 2.222790 
0.416223 0.430945 2.225141 
0.426152 0.431587 2.224944 
0.433987 0.437585 2.223774 
0.441940 0.439311 2.221931 
0.452033 0.439209 2.224223 
0.768347 0.435413 2.223723 
0.784343 0.434081 2.222242 
0.790704 0.431374 2.225988 
0.436144 0.442817 2.226839 
0.444619 0.442237 2.225070 
0.457702 0.446776 2.223860 
0.464553 0.449409 2.223647 
