ply
format ascii 1.0
comment PCL generated
element vertex 1470
property float x
property float y
property float z
element camera 0
property float view_px
property float view_py
property float view_pz
property float x_axisx
property float x_axisy
property float x_axisz
property float y_axisx
property float y_axisy
property float y_axisz
property float z_axisx
property float z_axisy
property float z_axisz
property float focal
property float scalex
property float scaley
property float centerx
property float centery
property int viewportx
property int viewporty
property float k1
property float k2
end_header
1.0188174 -0.16837998 2.2602091
1.0268314 -0.16139013 2.2647004
1.3828492 -0.15237051 2.2690203
1.4847983 -0.15538324 2.2662499
1.4904457 -0.15160032 2.2626662
1.5022691 -0.15432703 2.2685859
1.0362954 -0.14774209 2.2639868
1.0426416 -0.14774072 2.2639756
1.0535996 -0.14184314 2.2650442
1.2433833 -0.14376879 2.2643561
1.2519081 -0.1467149 2.2637992
1.2662102 -0.14179941 2.2646844
1.275884 -0.14130646 2.264761
1.3165647 -0.14277372 2.2644339
1.3244704 -0.1471941 2.2636085
1.3795698 -0.1437476 2.2641814
1.3843822 -0.14767732 2.2634525
1.4985111 -0.14805134 2.2665362
1.5040023 -0.14963497 2.2630255
1.5150653 -0.14657727 2.2668078
1.5266018 -0.14177349 2.2644708
1.5309869 -0.14657721 2.2668078
1.0655774 -0.13201496 2.2668366
1.0741776 -0.13142839 2.2647603
1.0847301 -0.1320108 2.2668023
1.1041454 -0.13025245 2.2605846
1.1264677 -0.13101909 2.2669091
1.1485118 -0.13199711 2.2666893
1.1529124 -0.13887423 2.2654121
1.163584 -0.13494173 2.266119
1.1758771 -0.13641301 2.265826
1.1837108 -0.1311132 2.2635412
1.2159555 -0.13336442 2.2641561
1.2370523 -0.13394442 2.2661791
1.2645125 -0.13375348 2.261842
1.2865789 -0.13786566 2.2653801
1.2949753 -0.13196884 2.2664561
1.3133726 -0.13393107 2.2660687
1.3377354 -0.13687509 2.2654946
1.344089 -0.1368742 2.2654872
1.3547225 -0.13392499 2.2660189
1.3650078 -0.13195838 2.2663698
1.3726845 -0.13687041 2.2654562
1.5445843 -0.13735199 2.2652855
1.0660766 -0.12927756 2.2608285
1.0788569 -0.1292749 2.2608066
1.0854977 -0.12829047 2.2609739
1.0955868 -0.12670922 2.2645025
1.105175 -0.12709352 2.2676728
1.1144081 -0.1242137 2.2660141
1.1246308 -0.12533396 2.2614431
1.1357396 -0.12395126 2.263849
1.1459318 -0.12558715 2.2635329
1.1618382 -0.12925786 2.2606661
1.1885257 -0.12532111 2.261337
1.1957951 -0.1231443 2.2682407
1.2047832 -0.12472117 2.2646756
1.2260486 -0.12815648 2.2640119
1.2327389 -0.12717274 2.2641826
1.303404 -0.12607202 2.2675319
1.3108255 -0.1231231 2.2680657
1.5451769 -0.12822945 2.2604704
1.5572914 -0.12320903 2.2646322
1.120362 -0.1174717 2.2628796
1.1966997 -0.1194222 2.2623956
1.5648087 -0.11348559 2.2631433
1.5712806 -0.11426052 2.2695365
1.5752071 -0.090094984 2.2607846
1.5831058 -0.087928504 2.2677736
1.5910755 -0.0027103648 2.2680051
1.5651461 0.0090757683 2.2613409
1.5791049 0.0042773783 2.2677808
1.5836204 0.0077139512 2.2611797
1.42927 0.011963561 2.2692864
1.5344235 0.018402934 2.2675805
1.5494438 0.016730271 2.2674839
1.5665238 0.012218505 2.2675142
1.5743501 0.01091218 2.2611346
-0.33794752 0.029371306 2.2602632
1.4295599 0.022071347 2.2687411
1.4340985 0.025504038 2.2684965
1.5223458 0.025887914 2.2641838
1.5396299 0.020887643 2.267385
1.5427748 0.0262172 2.2607632
1.5500333 0.025856465 2.2669959
1.5761886 0.028210357 2.2665591
-0.33440983 0.0332129 2.2658863
-0.32532811 0.036550645 2.2656112
1.3071012 0.037267387 2.2634401
1.3144665 0.035914101 2.2634013
1.3438034 0.036532432 2.2691486
1.3526158 0.038333863 2.2689269
1.3947439 0.038096383 2.2642097
1.405741 0.033036165 2.265358
1.4111547 0.035035741 2.2651849
1.4253211 0.033793092 2.2619307
1.4317676 0.039414093 2.2615564
-0.34044588 0.048295602 2.265353
-0.31827861 0.045250081 2.2651446
1.2657809 0.046651822 2.2666492
1.309427 0.044528373 2.2692077
1.3187135 0.045366816 2.2659354
1.3235042 0.048318271 2.2657151
1.3422184 0.044460669 2.2625575
1.3570201 0.047299486 2.2683818
1.3621395 0.044237159 2.2622831
1.3722893 0.049183168 2.2618856
1.3815368 0.044974834 2.26197
1.4312246 0.040367693 2.2677398
1.4993186 0.04952608 2.2601469
1.2526723 0.052531928 2.2634647
1.2666346 0.050764069 2.2633462
1.2748075 0.053513128 2.2661529
1.2854979 0.057496835 2.2688518
1.2975699 0.053542703 2.2688909
1.3116525 0.05178567 2.2687829
1.3259344 0.055092826 2.2622476
1.3437922 0.052667364 2.2621138
1.3517771 0.050361544 2.2621174
1.3631089 0.053394876 2.2648816
1.3748934 0.050420281 2.2679653
1.4288929 0.054271847 2.2670276
1.4306777 0.051413581 2.2609615
1.4655701 0.05958911 2.2662656
1.4731903 0.058258519 2.2662389
-0.30970827 0.064167738 2.2642322
1.2416999 0.060612045 2.2693272
1.2784379 0.063923955 2.2624905
1.2868296 0.060646668 2.2625351
1.4903334 0.062825829 2.2657802
1.4290154 0.074445784 2.265949
1.4384117 0.075291559 2.2657814
1.4465653 0.078041628 2.2655292
-0.30024874 0.089209393 2.2687376
1.2302406 0.080757402 2.2623441
1.4183991 0.08054734 2.265763
-0.3380737 0.095891654 2.2633464
1.2182958 0.090766475 2.2680347
-0.33611241 0.10715252 2.2684753
-0.29846907 0.10147215 2.2625182
1.2106749 0.10419998 2.2614276
1.4531355 0.1028285 2.2641289
1.2009789 0.11037896 2.2672255
1.4466608 0.11736255 2.2694683
0.83696073 0.12903798 2.2661538
0.84352511 0.12761238 2.2661188
0.85009974 0.12618798 2.266084
1.186986 0.12424192 2.2666802
1.1917847 0.12669553 2.2605505
-0.28856862 0.13058609 2.2667396
0.82500571 0.13401435 2.2622073
0.83270729 0.13218616 2.2631433
0.84155875 0.13248152 2.2600589
0.85607988 0.13378307 2.2655854
0.86358106 0.13748276 2.2652659
0.87444103 0.13291529 2.2653251
0.88212359 0.13612714 2.2650285
-0.28591463 0.1489763 2.2603619
0.8059988 0.14742233 2.2657061
0.8143245 0.14111727 2.2629948
0.88305205 0.14830831 2.2643738
1.1704177 0.14291371 2.2659118
-0.3340444 0.15170184 2.2609751
0.78406227 0.15855393 2.2654886
0.79518896 0.15249835 2.2656202
0.88557041 0.15659755 2.2667894
0.89653504 0.15178765 2.2668643
0.90320498 0.15717413 2.2693551
1.1566061 0.156793 2.265363
-0.36367482 0.16516018 2.2663236
-0.33205509 0.16296536 2.2659531
0.76587832 0.16800711 2.2652967
0.77691513 0.16194321 2.2654302
0.90569085 0.16513036 2.2650366
0.91537839 0.16566442 2.2667675
1.0888407 0.16984873 2.2656877
1.119736 0.16859676 2.2652795
1.1270735 0.16623268 2.2652965
1.1354711 0.16194785 2.2654026
1.1481425 0.16107188 2.2652576
-0.36201251 0.17438799 2.2604585
-0.27680773 0.17398643 2.2646513
0.73086733 0.17594559 2.2654667
0.74818653 0.17649628 2.2651474
0.75524771 0.17309903 2.2652073
0.903032 0.17127775 2.2628379
0.92299014 0.17307141 2.2652845
0.93351686 0.17603511 2.2649546
0.9412024 0.1787405 2.2675464
1.0489184 0.17734793 2.2630248
1.0548882 0.17738119 2.2629278
1.0647411 0.17574494 2.2657399
1.0758284 0.17170209 2.2657886
1.0820801 0.17125665 2.2657154
1.096473 0.17255202 2.2654214
1.1059506 0.17743754 2.265008
1.1370897 0.17015859 2.2649295
-0.33285993 0.18910454 2.2648118
-0.26957637 0.18672998 2.2694116
0.71519959 0.18764138 2.265115
0.72251046 0.18325853 2.2652228
0.73515463 0.180364 2.2651627
0.74045539 0.18184914 2.2649958
0.9398402 0.18164751 2.2616878
0.94606328 0.18749776 2.2641325
0.95469576 0.18801999 2.2668169
0.9645375 0.18588141 2.2667758
0.97775912 0.18909279 2.2606788
0.98388612 0.18863614 2.260603
1.0154386 0.18878402 2.2638967
1.0247458 0.18592691 2.2619905
1.0350561 0.18517281 2.2637775
1.0407515 0.18165624 2.2600517
-0.35240924 0.1974265 2.2647336
-0.34174627 0.19838616 2.2645335
-0.33656406 0.19784194 2.2671697
-0.26576322 0.19514069 2.2662535
0.70592386 0.19789609 2.2647321
0.95569164 0.1921474 2.2608786
0.96281832 0.19581339 2.26057
0.97310716 0.19068699 2.2644732
0.98585749 0.1928426 2.2641516
0.99609822 0.19611669 2.2638068
1.005193 0.19357568 2.2628508
-0.35140502 0.20255274 2.2698526
-0.34402385 0.20489883 2.2678502
-0.26138955 0.20763442 2.2629387
0.64473367 0.20952733 2.2651467
0.65090787 0.20806687 2.26512
0.6793586 0.20861109 2.2646143
0.68589401 0.20617482 2.2646329
0.69589233 0.20203397 2.2646828
-0.25489926 0.21628125 2.2651427
0.63705903 0.21589383 2.2649405
0.6533699 0.2183699 2.2645373
0.67156529 0.21496667 2.2644112
-0.24858905 0.22390372 2.2673674
0.62517083 0.22692148 2.2645602
0.65511733 0.22490871 2.2678654
0.66412455 0.22034591 2.2642536
-0.2437418 0.23442453 2.2632668
0.61396325 0.23599423 2.2642713
-0.23372763 0.24473514 2.262655
-0.22984177 0.24777 2.2659788
0.60515249 0.24679247 2.2665973
-0.22351871 0.25741711 2.2601831
0.074603491 0.25702012 2.2646036
0.084440127 0.2561419 2.2636061
0.095117047 0.25836062 2.2660103
0.10495839 0.25740132 2.2623401
0.11661132 0.25677145 2.2604084
0.12461975 0.25849789 2.2628813
0.13293952 0.25470757 2.2656174
0.14344656 0.2591818 2.2652354
0.57925969 0.25908023 2.2663617
0.58640051 0.25367153 2.2692659
0.59498429 0.25293186 2.269165
-0.22308007 0.26047632 2.265286
-0.21380655 0.26601395 2.2666342
-0.2066412 0.26850629 2.2672863
0.047728732 0.26703513 2.2645223
0.054877669 0.26280665 2.2637324
0.06290023 0.26151237 2.2636752
0.070899069 0.26072249 2.2609253
0.094964445 0.26087213 2.26055
0.10845471 0.26006505 2.2657244
0.1164958 0.26028472 2.2655916
0.1535773 0.26866275 2.2646103
0.16523214 0.26886839 2.267976
0.563878 0.26777655 2.2670515
0.57245147 0.2635082 2.2662358
0.58593988 0.26472467 2.2632303
0.59491384 0.26250786 2.2631969
-0.20103893 0.27253899 2.2670126
-0.19319709 0.27374884 2.2668383
-0.18289775 0.27391967 2.2666805
-0.17349581 0.27367446 2.2656872
-0.16704836 0.27811849 2.2662549
-0.15619738 0.27489528 2.2653828
-0.14750753 0.27567577 2.2669652
-0.13339604 0.27963254 2.2683065
-0.12574957 0.27830446 2.2682629
-0.003324151 0.27722496 2.2665424
0.0045686662 0.27843934 2.266366
0.01504593 0.27484804 2.2637537
0.025610752 0.27781275 2.2660863
0.037032541 0.27615392 2.2642403
0.044095114 0.27141598 2.2608328
0.1613225 0.2728883 2.264282
0.17465928 0.27408624 2.2666771
0.18516539 0.27704561 2.2690253
0.54657066 0.27730688 2.2686167
0.55513883 0.27270448 2.2651279
-0.1637965 0.2849617 2.268476
-0.15900061 0.28136081 2.2685862
-0.1433351 0.28479162 2.2629895
-0.13665217 0.28236711 2.2647448
-0.12557805 0.28134903 2.2628915
-0.1173208 0.28813869 2.2650552
-0.034531869 0.28702039 2.2639008
-0.026720308 0.28696734 2.2637863
-0.018867791 0.28994468 2.2609131
-0.0067417473 0.28599378 2.2626646
0.0045534596 0.28348339 2.2608647
0.025541984 0.28234798 2.260602
0.033443525 0.28053877 2.2605672
0.18464503 0.28254843 2.2634435
0.19429553 0.28458998 2.2667258
0.20557502 0.2877062 2.2655108
0.21369226 0.28667253 2.2654362
0.52736056 0.28767568 2.2683597
0.53533679 0.28503472 2.2665889
0.54465705 0.2841965 2.2628956
-0.1117564 0.29418427 2.2646813
-0.10374236 0.2989381 2.2643368
-0.090871431 0.29959238 2.2641182
-0.083276808 0.29750353 2.2641065
-0.07300543 0.29691571 2.2639847
-0.062716231 0.2963295 2.2638655
-0.055068173 0.29374135 2.2638783
-0.047187939 0.29697093 2.2636056
-0.039485388 0.29514378 2.2635818
-0.015306483 0.29261449 2.2642143
0.19721529 0.29124078 2.2628174
0.21852913 0.29164448 2.2651088
0.22510634 0.29677224 2.2656245
0.51627666 0.29877833 2.2652633
0.52299553 0.29383826 2.2654207
0.53745991 0.29060584 2.2626786
-0.095941469 0.3006483 2.2641416
0.22783197 0.30407771 2.261703
0.23543142 0.30753177 2.2640359
0.24598348 0.30797735 2.2638478
0.48923647 0.30945066 2.2651348
0.50391871 0.30472314 2.2651486
0.51258624 0.30248117 2.2624679
0.25552812 0.3166495 2.2632556
0.26617569 0.31609556 2.2631187
0.27918133 0.31777018 2.2628238
0.28466141 0.31624946 2.2602003
0.30564234 0.31813306 2.2650049
0.47667074 0.3168889 2.2649412
0.48252332 0.31489533 2.2649531
0.49414411 0.31140453 2.2649498
0.27348739 0.32078621 2.2627635
0.28641731 0.32295573 2.2650561
0.29785606 0.32314351 2.2666039
0.3047953 0.32410091 2.269923
0.31161079 0.32538956 2.2662697
0.4553434 0.32807297 2.2673054
0.46706763 0.32728148 2.265414
0.31753528 0.33264223 2.2675219
0.32657841 0.33639735 2.2663131
0.33591032 0.33832857 2.2669246
0.35548508 0.33673063 2.2658348
0.36383021 0.33445489 2.2684231
0.40235269 0.33994061 2.2649088
0.4187181 0.33738321 2.2621799
0.42914957 0.33831736 2.2671642
0.43455842 0.33779609 2.2671058
0.44326827 0.33429769 2.2645502
0.45415944 0.33301193 2.2618294
0.46232015 0.33223417 2.2617362
0.33888251 0.34128758 2.2632642
0.34679598 0.34124133 2.2657299
0.36492047 0.34262288 2.2627766
0.37370029 0.34273782 2.2660844
0.38290483 0.34499526 2.26495
0.39393544 0.3424595 2.2649095
0.40733296 0.34139699 2.2647488
0.41445675 0.34102917 2.2655203
0.42494699 0.34130275 2.2636046
0.43364125 0.34175077 2.2617073
0.22450273 -0.31112999 2.2735033
0.232342 -0.31043372 2.2746656
0.24263911 -0.31322718 2.2700872
0.25421047 -0.31028739 2.2706964
0.27407727 -0.31076792 2.2746601
0.29619437 -0.3132357 2.2701576
0.30500323 -0.31212366 2.2734132
0.31381738 -0.3102963 2.2707698
0.3258256 -0.31163603 2.2735348
0.33215433 -0.31689599 2.2754927
0.17598641 -0.3043887 2.2717588
0.18493327 -0.30474985 2.2747371
0.19685671 -0.30439299 2.2717943
0.21533418 -0.30136737 2.2744577
0.24433114 -0.30266866 2.2782865
0.25943869 -0.3041417 2.2780077
0.26383373 -0.30758634 2.2732751
0.27775276 -0.30734915 2.2713203
0.28739485 -0.30456066 2.2759399
0.29575688 -0.3090491 2.2770543
0.30769324 -0.3090508 2.2770681
0.31748155 -0.30685261 2.2755096
0.33548236 -0.30759597 2.2733545
0.34501991 -0.30138743 2.2746222
0.35527444 -0.30539802 2.2717969
0.36422116 -0.30526736 2.2748632
0.37608767 -0.30330747 2.2752693
0.39094961 -0.30049807 2.27281
0.40291101 -0.30023798 2.2789512
0.16870958 -0.29556209 2.2735243
0.17456192 -0.29530278 2.2796738
0.19579779 -0.29726788 2.2793102
0.20515516 -0.29949182 2.2727954
0.21101797 -0.29923159 2.2789354
0.2529223 -0.2992394 2.2789998
0.28287172 -0.2985248 2.2731044
0.35478672 -0.29827324 2.2793176
0.3849034 -0.29951707 2.2730036
0.39675906 -0.29644617 2.2766747
0.40568 -0.29363495 2.2742009
0.41475964 -0.29546702 2.2768846
0.42382884 -0.29657778 2.2736168
0.13639544 -0.28048357 2.2734404
0.14629035 -0.28624135 2.2753608
0.15568039 -0.28869498 2.274884
0.1613847 -0.28673497 2.2752895
0.43567646 -0.28971392 2.2750039
0.44466135 -0.28677246 2.275599
0.45367822 -0.28395885 2.2731056
0.46678051 -0.28424343 2.2740715
-0.21396238 -0.27193058 2.2774673
-0.20813069 -0.27107915 2.2745862
-0.18652695 -0.27340829 2.277225
-0.1748939 -0.27529478 2.274832
-0.16474353 -0.27556765 2.272249
-0.15699711 -0.27194458 2.2775826
-0.14529097 -0.27060428 2.2748117
-0.11799306 -0.27195469 2.2776661
0.11682087 -0.27128839 2.2721691
0.12642245 -0.27484223 2.2745516
0.45663491 -0.27990869 2.2769842
0.47479117 -0.27660337 2.2745776
0.48083392 -0.27071875 2.2757561
0.4960345 -0.2742781 2.2719688
0.50516331 -0.27133489 2.2725527
-0.25326341 -0.26175201 2.2763677
-0.24468605 -0.26326731 2.2750556
-0.22204033 -0.26519156 2.2757368
-0.21460789 -0.26924402 2.2718763
-0.20338053 -0.26715717 2.2753787
-0.19563043 -0.26622057 2.2745583
-0.18490803 -0.26826987 2.2721283
-0.15517026 -0.26729628 2.2723832
-0.14571917 -0.26913294 2.2751045
-0.13531876 -0.2634964 2.2762549
-0.12510777 -0.267667 2.2754407
-0.11608215 -0.26395223 2.2751818
-0.092413507 -0.26256675 2.277564
-0.084292829 -0.26240996 2.2735069
-0.075235844 -0.26277679 2.2765341
0.11312859 -0.26772833 2.2759478
0.48691303 -0.26728654 2.2764463
0.49605739 -0.26716095 2.2795544
0.5113402 -0.26152557 2.2744994
0.72481614 -0.26248744 2.2741461
0.73112065 -0.26052451 2.2745275
0.81619322 -0.26148954 2.2742023
0.87708861 -0.26049531 2.2742867
-0.26483321 -0.2540288 2.274807
-0.23333013 -0.25795922 2.2740829
-0.11029249 -0.25553671 2.274816
-0.10397881 -0.25651941 2.2746346
-0.097144008 -0.25946391 2.2740643
-0.072983623 -0.25947019 2.274116
-0.065405309 -0.25358647 2.2753019
-0.053163767 -0.25408018 2.2752309
-0.0444327 -0.2526111 2.275542
-0.034628242 -0.2555564 2.2749784
0.08299318 -0.25166216 2.2760024
0.10144371 -0.25264758 2.2758429
0.51752257 -0.25563985 2.275667
0.52572459 -0.25310558 2.2740967
0.53595835 -0.25269657 2.2762473
0.71944487 -0.25562167 2.275517
0.73743528 -0.25856155 2.2749088
0.74421382 -0.25267488 2.276068
0.75050569 -0.25083488 2.2733204
0.76853657 -0.25365141 2.2758379
0.77438903 -0.25561225 2.2754393
0.78334421 -0.25708193 2.2751331
0.79566944 -0.2560986 2.2753081
0.80459917 -0.2575683 2.2750013
0.81068909 -0.25756708 2.274991
0.82606232 -0.2565828 2.2751596
0.84832555 -0.25069252 2.2762892
0.8661232 -0.25363126 2.2756717
0.8717013 -0.25657296 2.2750764
0.88403833 -0.25558904 2.2752478
0.8902986 -0.25460649 2.2754307
-0.31353408 -0.24470061 2.2765808
-0.30426115 -0.24482632 2.2734745
-0.29031438 -0.24102795 2.2711437
-0.2835421 -0.24372531 2.2768214
-0.27542531 -0.24961248 2.2756658
-0.023787757 -0.24550529 2.2749319
-0.016124308 -0.24342266 2.2743244
-0.0065920725 -0.24514198 2.2740066
0.050393999 -0.24012725 2.2719996
0.068931401 -0.24111278 2.2718434
0.076350063 -0.24871784 2.2765739
0.088547766 -0.24872075 2.276598
0.094824433 -0.24970329 2.2764149
0.53600103 -0.2499987 2.2705653
0.54221982 -0.24693257 2.2742755
0.65599847 -0.24545228 2.2744942
0.6651001 -0.24692258 2.2741942
0.67359704 -0.24328415 2.275944
0.68597752 -0.24230129 2.276123
0.69405729 -0.24336241 2.273828
0.70512986 -0.24544649 2.274446
0.71413815 -0.24740717 2.2740476
0.75715292 -0.24678709 2.2772186
0.76291561 -0.24972883 2.2766256
0.83627343 -0.24971429 2.2765057
0.84237993 -0.24971297 2.2764947
0.85507739 -0.24676742 2.2770565
0.86085832 -0.2487278 2.2766562
0.89729559 -0.24933326 2.2733631
0.90422058 -0.24491698 2.2742214
0.91342765 -0.24466914 2.2742496
0.92510611 -0.24736419 2.2736931
0.93553483 -0.2409848 2.274931
-0.34685463 -0.23611206 2.2720256
-0.32392377 -0.23292756 2.2789025
-0.31568748 -0.23807964 2.2716825
-0.30421519 -0.23685473 2.2781525
-0.2959837 -0.23693837 2.2760799
0.0039242283 -0.23754099 2.2755265
0.015995719 -0.23680811 2.2756963
0.024609283 -0.2341124 2.276247
0.032472085 -0.23251963 2.2755377
0.043592915 -0.23706073 2.2757077
0.053323466 -0.23473275 2.2772202
0.063412346 -0.23408143 2.2773724
0.54857528 -0.23908377 2.2758222
0.64727378 -0.23858565 2.275857
0.67808902 -0.23821229 2.2727768
0.94539636 -0.23276646 2.2775743
-0.34334081 -0.22924377 2.2733736
-0.32609332 -0.22630271 2.2739723
0.55501866 -0.22939152 2.2745924
0.56451094 -0.22350338 2.2757411
0.57681239 -0.22644648 2.2751591
0.58611834 -0.22644602 2.2751546
0.61432266 -0.22104684 2.2761931
0.62666333 -0.22251774 2.2758963
0.63597614 -0.22251675 2.2758889
0.64178264 -0.2284037 2.2747316
0.95337886 -0.22834653 2.2742591
-0.34234869 -0.21550584 2.2760625
-0.33583874 -0.2164883 2.2758791
0.5958671 -0.21674968 2.2738924
0.60510373 -0.21871194 2.2735062
0.9646858 -0.21815898 2.2730875
0.97340679 -0.21574295 2.2724931
0.98449636 -0.21189283 2.2711174
0.97915763 -0.20871523 2.2780514
0.98556817 -0.2077325 2.2782307
1.3957913 -0.20825526 2.2742567
1.4042578 -0.20984559 2.2708015
1.4136579 -0.2019915 2.2723072
0.99353284 -0.19913013 2.2735634
1.3834851 -0.19217847 2.2742226
1.3949324 -0.19500554 2.2768281
1.409862 -0.19685063 2.2796178
1.4168802 -0.19488734 2.2799964
1.4260077 -0.19462848 2.2737174
1.0030897 -0.18402658 2.2732697
1.3768544 -0.18530793 2.2755532
1.4396574 -0.18432032 2.2756941
1.0151339 -0.17248875 2.2754607
1.0250728 -0.17065723 2.2789965
1.3755839 -0.17254703 2.2780139
1.4546626 -0.17767553 2.2705994
1.4630294 -0.17276548 2.2715271
1.0266984 -0.16302395 2.2740355
1.0325288 -0.16574728 2.2799292
1.378644 -0.16393484 2.2732635
1.4521197 -0.16959508 2.2785225
1.4613298 -0.16272298 2.2798409
1.4710031 -0.16883713 2.2722695
1.0358052 -0.15123907 2.2762594
1.3776619 -0.15018806 2.2758756
1.4853551 -0.15754384 2.2744069
1.4972183 -0.15214278 2.2754283
1.5027016 -0.15410674 2.2750552
1.5103557 -0.15116072 2.2756131
1.0362837 -0.14850849 2.2703097
1.0445106 -0.14103362 2.27494
1.0501678 -0.1435944 2.2712045
1.2441751 -0.14207897 2.2711341
1.2531984 -0.14355069 2.2708437
1.2630236 -0.14294979 2.274174
1.2757885 -0.14270203 2.2742023
1.3172605 -0.14157483 2.2711184
1.3232434 -0.14293951 2.2740893
1.365012 -0.14184305 2.2774746
1.3747233 -0.14135082 2.2775571
1.3803215 -0.14254804 2.2708607
1.5189055 -0.14625047 2.2765434
1.5270436 -0.14193988 2.2741301
1.5361774 -0.14292221 2.2739465
1.0557607 -0.13854037 2.2764711
1.0655594 -0.13317189 2.276381
1.0753835 -0.13218768 2.2765493
1.0844601 -0.13414934 2.2761583
1.0908337 -0.13453385 2.2793286
1.1485003 -0.13276778 2.2730474
1.154592 -0.13374883 2.2728524
1.1768821 -0.13374376 2.2728124
1.1873226 -0.13079485 2.2733462
1.204314 -0.13130516 2.2775562
1.214693 -0.13534847 2.2756908
1.2241582 -0.13559155 2.2756243
1.2339339 -0.13485298 2.2757468
1.2459334 -0.13744494 2.2784839
1.2561135 -0.13547914 2.2788403
1.2870727 -0.13754439 2.2751598
1.3154749 -0.13521154 2.2766335
1.3315488 -0.13753662 2.2750967
1.3428866 -0.13262425 2.2760067
1.3543417 -0.13605982 2.2753437
1.3668804 -0.13616523 2.2720695
1.3762354 -0.13665524 2.2719676
1.5454755 -0.13653868 2.2751503
1.5543661 -0.13113648 2.276165
1.5640069 -0.13152161 2.2793422
1.0926294 -0.1268869 2.2742548
1.1031307 -0.12344667 2.2748795
1.1159409 -0.1234438 2.2748559
1.1254129 -0.12393288 2.2747464
1.1358328 -0.12098376 2.2752795
1.1437845 -0.12687548 2.2741604
1.1657189 -0.12834388 2.2738447
1.1945918 -0.12784663 2.2738857
1.2009745 -0.12784529 2.2738748
1.2959899 -0.12979123 2.273355
1.3037391 -0.12586102 2.2740798
1.3104701 -0.12487771 2.2742546
1.5658242 -0.12682295 2.2737272
1.5800446 -0.11012368 2.2768474
1.5878215 -0.092642434 2.2735143
1.5904926 -0.0017605051 2.2743561
1.4400259 0.0058688894 2.2757866
1.5692662 0.0084270462 2.27404
1.5805254 0.0023831055 2.2742429
-0.33676073 0.017868621 2.2782905
1.4269097 0.015778244 2.2754018
1.4433837 0.011211939 2.2754424
1.5416805 0.018042043 2.2738333
-0.33525017 0.027587192 2.2719729
-0.32713729 0.024279572 2.2778513
1.4126481 0.027600683 2.2749255
1.5292811 0.025999531 2.2735403
1.5409644 0.029067382 2.2732313
1.5534248 0.0211154 2.2735243
-0.32590967 0.032460324 2.27162
-0.31926095 0.038094278 2.2770905
1.2651386 0.036506988 2.2733843
1.2730184 0.034188908 2.2764935
1.3339075 0.036644548 2.2754872
1.3456078 0.03366489 2.2754931
-0.34139997 0.042155899 2.271421
-0.31884962 0.041160967 2.271132
1.2587354 0.041982301 2.2700875
1.2790205 0.040777929 2.276031
1.2849748 0.047362756 2.2755704
1.306657 0.049314126 2.2751508
1.3236473 0.042778149 2.2752826
1.3543551 0.041005004 2.2749567
1.3605106 0.047103889 2.2745273
1.3761575 0.048512105 2.2742355
1.39441 0.040577348 2.2744374
1.4288315 0.044179268 2.2737813
1.4321404 0.049512342 2.2796404
1.5085682 0.046309166 2.2789001
-0.31039271 0.059057802 2.2730992
1.2471902 0.051019169 2.2759092
1.2962344 0.050392497 2.2752373
1.3094388 0.055613443 2.2747538
1.3638051 0.052441016 2.2741809
1.4397175 0.058264941 2.2728522
1.4196732 0.068558872 2.2725329
1.4272614 0.067219853 2.2786627
1.4599987 0.068149991 2.2782056
1.4650111 0.060541317 2.2724056
1.4961314 0.064350143 2.271812
1.4253192 0.070075065 2.2723753
1.4331987 0.073301762 2.2751651
1.4473519 0.077093318 2.277837
1.4637604 0.072521083 2.2779052
-0.30141312 0.081034228 2.2748218
1.2226775 0.083090298 2.2744365
1.4285249 0.085480422 2.2775772
1.4353602 0.085090019 2.2744617
1.4434741 0.082798533 2.2714334
1.4547349 0.085828379 2.2711239
1.4768957 0.082776658 2.2771518
-0.29357028 0.095849119 2.2796831
1.2069498 0.099821404 2.2737112
1.4572359 0.09209691 2.2768421
1.4633657 0.097692057 2.2734017
1.1967289 0.10696124 2.2794323
1.4488136 0.10445035 2.2701602
-0.33397886 0.11943725 2.2734935
-0.2915228 0.11015241 2.2733152
1.1929263 0.11368164 2.2731259
0.81891733 0.12941968 2.2781177
0.82675046 0.12458263 2.2753413
0.83584249 0.12439273 2.2752056
0.84688592 0.1268989 2.2748809
-0.28290498 0.13108578 2.2777865
0.80921519 0.13913485 2.2748075
0.81775075 0.13234441 2.2721343
0.85576344 0.1347549 2.2742891
0.86519748 0.1386275 2.2748868
0.87460655 0.13510741 2.2729857
0.88199794 0.13661188 2.2737522
1.1774505 0.1304301 2.278307
-0.2811906 0.14334285 2.2716115
0.80069488 0.14592908 2.2745643
0.88272214 0.1492791 2.2730258
1.1545761 0.14954251 2.2774959
1.1636021 0.14430614 2.2776778
1.1715405 0.14099309 2.2718799
-0.32718885 0.15936095 2.2770107
0.77878261 0.15706292 2.2742977
0.78576267 0.1541625 2.2743449
0.79276079 0.15126395 2.2743917
0.88686764 0.15368214 2.2756023
0.89568508 0.15397157 2.2754426
0.90367061 0.15620251 2.2751839
1.1582519 0.15391138 2.271338
-0.36367813 0.16464847 2.2745357
-0.27198663 0.16936965 2.2757351
0.76577556 0.16849406 2.2738593
0.77166671 0.16045243 2.2770934
0.90647864 0.16351226 2.2747152
0.91051173 0.16790804 2.2743955
0.92197448 0.16893452 2.2799027
1.0781453 0.16736621 2.2746706
1.0846593 0.16644022 2.2746251
1.0936922 0.16649702 2.2744856
1.1048632 0.16825852 2.2742147
1.1140397 0.16807626 2.2740874
1.1252971 0.16404869 2.2741525
1.1347755 0.16338952 2.2740517
1.1434702 0.16232468 2.2730141
-0.33006603 0.17422891 2.2708707
0.72604793 0.17886381 2.2748792
0.73057568 0.17692229 2.271117
0.74517024 0.17697318 2.2737231
0.75461853 0.17505108 2.2736754
0.76131773 0.17263211 2.2708437
0.91758168 0.17207274 2.2740405
0.92615414 0.17284167 2.2767305
0.93415856 0.17482236 2.2764852
0.94193381 0.17728636 2.2762141
0.96449357 0.17981833 2.2785704
1.0480807 0.17927587 2.2773049
1.0542362 0.17882699 2.2714868
1.0665457 0.17237118 2.2745538
-0.32807726 0.1854926 2.2757282
0.71744615 0.18128297 2.2739358
0.73505533 0.18085141 2.2736695
0.94693804 0.1836185 2.2748077
0.95481712 0.18365385 2.276587
0.96484178 0.18539706 2.2753706
0.97269791 0.18761379 2.2779698
0.98424423 0.18815136 2.2749028
0.99347299 0.18746728 2.2776539
1.0367399 0.18598618 2.2751667
1.0475413 0.18024084 2.2715092
1.0533128 0.18075509 2.2771358
-0.35209906 0.19845282 2.2754257
-0.34162465 0.19838743 2.2752807
-0.33352959 0.19474888 2.2735486
-0.26283744 0.19640481 2.2742665
0.6873911 0.19319361 2.2765794
0.69678366 0.19101436 2.2765515
0.70435518 0.19421884 2.2734208
0.96562457 0.19000678 2.2722337
0.97447175 0.19214542 2.2738712
0.9878149 0.193012 2.2717083
0.99584067 0.19474253 2.2714818
1.0043536 0.19147269 2.2753422
1.0148612 0.19216715 2.2741852
1.0225377 0.19462228 2.2739227
1.0303437 0.19079068 2.2711689
-0.34584063 0.20405678 2.2750595
-0.25603741 0.20709583 2.2763271
0.66832185 0.20760769 2.276057
0.67466033 0.20566037 2.2732649
0.68396205 0.20347559 2.2704234
0.69314516 0.20178178 2.2703645
-0.34373385 0.21533121 2.2797987
0.63667691 0.21736404 2.273222
0.64526284 0.21713109 2.2703109
0.66606545 0.21446666 2.270113
-0.24836063 0.22492521 2.2753134
0.62421584 0.22716498 2.2719498
0.64316809 0.22399469 2.2755194
0.65436643 0.22449853 2.2753067
-0.24158242 0.23662487 2.2746232
0.60828012 0.23648113 2.275367
0.61550325 0.23108476 2.2727971
0.62652194 0.23207398 2.2753236
0.11986334 0.24898446 2.2768533
0.12529385 0.248465 2.2768023
0.58757919 0.24974015 2.2749369
0.60077667 0.24286284 2.2751198
-0.23426959 0.25290924 2.2736912
-0.22891229 0.25439954 2.2735434
0.049754724 0.25880513 2.2773306
0.055190325 0.25324538 2.2775583
0.063145772 0.255476 2.2746534
0.073870733 0.25492907 2.2745225
0.084605515 0.25463498 2.2743831
0.095452003 0.25183058 2.274374
0.1060872 0.25480404 2.2740567
0.11602876 0.2530112 2.273113
0.12507752 0.25147483 2.2712688
0.13309276 0.253454 2.2737288
0.14283438 0.25609422 2.2743385
0.15165794 0.25890297 2.2758396
0.59302437 0.25023022 2.2748194
-0.22261131 0.26353583 2.2729907
-0.21570331 0.26382074 2.2737534
-0.20453981 0.26364765 2.2753513
-0.19643804 0.26689714 2.2750692
0.038969934 0.26842245 2.2743053
0.046085689 0.26452693 2.2735252
0.055007413 0.26029074 2.2718456
0.14605051 0.26142758 2.2704341
0.15478162 0.26523623 2.2718866
0.16193995 0.26587728 2.2753034
0.55456692 0.26844186 2.2770987
0.56441516 0.2661365 2.2761753
0.57578361 0.26178452 2.2744312
-0.19204085 0.27535495 2.2780416
-0.18484293 0.27903035 2.2742746
-0.17960502 0.27949706 2.2793829
-0.15403177 0.27877885 2.2738593
-0.14641695 0.27744794 2.2738228
-0.12573595 0.27729052 2.2761548
-0.0032442361 0.27672094 2.2744665
0.0046500862 0.27768347 2.2743025
0.015156299 0.27232805 2.2744393
0.025711775 0.27252197 2.2742777
0.033637501 0.27298325 2.274138
0.16670603 0.27436906 2.277421
0.17168742 0.27885228 2.2744448
0.193161 0.27876386 2.2794416
0.52978009 0.27881047 2.2795768
0.5356645 0.27732381 2.2795725
0.54486078 0.27714491 2.2776406
-0.18456851 0.28106663 2.2793641
-0.17595212 0.28218129 2.2757192
-0.16641712 0.28345868 2.2763877
-0.1570823 0.28253374 2.2771752
-0.14609653 0.28049651 2.2788725
-0.13557948 0.28346163 2.2759602
-0.1175282 0.28357401 2.2757049
-0.034516618 0.28348386 2.2745461
-0.02578637 0.28527853 2.2734554
-0.015334994 0.28487334 2.2750788
-0.0083773807 0.28482819 2.274107
0.17494226 0.28317466 2.2776899
0.1848633 0.28154802 2.2767515
0.19621259 0.28408247 2.2755573
0.20579931 0.2864567 2.276161
0.21660122 0.28541261 2.2760577
0.22423741 0.28912425 2.2757344
0.51626867 0.28868416 2.2791944
0.52523428 0.28210112 2.2758682
0.53725088 0.28150398 2.273916
-0.11170932 0.29317099 2.2751083
-0.10377353 0.29665762 2.2748137
-0.092645556 0.29639819 2.2755384
-0.084046967 0.29717359 2.2736471
-0.070213571 0.29841545 2.276845
-0.062641777 0.29531872 2.274313
-0.054953083 0.29374236 2.2742884
-0.046272576 0.29485884 2.2749712
-0.039511181 0.29059547 2.2742388
-0.029104218 0.29001749 2.2767336
-0.018733561 0.29095554 2.2713127
0.22931571 0.2915976 2.2755182
0.23665556 0.29780066 2.2776947
0.51495695 0.29361168 2.273576
-0.095885426 0.30014232 2.271929
-0.080400586 0.30052307 2.27687
-0.073469236 0.30283025 2.2731969
-0.049568832 0.30027813 2.2712662
0.23604167 0.30279091 2.2721567
0.24658735 0.30373761 2.2745736
0.48932844 0.3094494 2.2757194
0.49546096 0.30647278 2.2757978
0.5044468 0.30299684 2.2758608
0.25590199 0.31440544 2.2738307
0.26650172 0.31435126 2.2736726
0.27418616 0.31630304 2.2734456
0.29527703 0.31719074 2.2756848
0.30021587 0.31965151 2.2754669
0.45497158 0.31845269 2.2783659
0.46376398 0.31521139 2.2784231
0.47662145 0.31738144 2.2728186
0.48237562 0.31588063 2.2754483
0.27873847 0.32175344 2.2730656
0.28624952 0.32469785 2.2727866
0.29421982 0.32415733 2.2700846
0.30722225 0.32582694 2.2750022
0.32293838 0.32673728 2.2747071
0.33350056 0.32692948 2.2771406
0.34365243 0.3296051 2.279429
0.35458907 0.32756492 2.2793841
0.36258715 0.32727656 2.279278
0.44488111 0.32762605 2.2779698
0.45607266 0.32510942 2.2727013
0.46734473 0.32259548 2.272666
0.47309858 0.32109219 2.2779181
0.31418943 0.33199885 2.2745383
0.34309465 0.33258393 2.274056
0.35305226 0.33600056 2.2737033
0.36445832 0.33618543 2.2752457
0.38153523 0.33906341 2.2782707
0.39479095 0.33874428 2.2780833
0.4044511 0.33877507 2.2761984
0.41531149 0.3374002 2.2761116
0.42678332 0.33734125 2.2750664
0.43560737 0.33334675 2.2751627
0.44372326 0.3325673 2.2724671
0.37312734 0.34158558 2.2756572
0.38419107 0.34333825 2.2745197
0.39415389 0.34171602 2.2727265
0.40719867 0.34238601 2.2724812
0.4181824 0.34035009 2.2724245
0.33470961 -0.3117305 2.2826011
0.21750918 -0.30387163 2.2840667
0.22421286 -0.30975282 2.2828598
0.23291782 -0.30779445 2.2832797
0.2651163 -0.30192056 2.2845457
0.27444214 -0.30535197 2.2838485
0.28897232 -0.3009446 2.2847807
0.2951417 -0.30290526 2.2843828
0.30551845 -0.30771932 2.2854223
0.31534216 -0.30608717 2.2857711
0.32560921 -0.30976951 2.2829976
0.3462173 -0.3057206 2.2868903
0.35513353 -0.30474204 2.2871041
0.36433196 -0.30841744 2.2863479
0.37523165 -0.30707398 2.2856236
0.40291446 -0.30095753 2.2848876
0.17999852 -0.29210424 2.2864368
0.18655127 -0.29602557 2.2856369
0.19520336 -0.29357767 2.2861598
0.2038714 -0.29076868 2.2837055
0.21039224 -0.29505077 2.2858813
0.2435579 -0.29652715 2.2856302
0.25533432 -0.29456931 2.2860539
0.28269833 -0.29800379 2.2853813
0.34852588 -0.29435155 2.2801127
0.38457406 -0.29373574 2.28332
0.39261356 -0.29418325 2.2842498
0.40871117 -0.29520738 2.2830291
0.41457576 -0.29115868 2.2869229
0.42370814 -0.2933774 2.2803631
0.1424334 -0.28157184 2.2824185
0.16740429 -0.28745905 2.2812634
0.17342493 -0.28818312 2.2872369
0.42348546 -0.28674942 2.2878399
0.43554917 -0.28565285 2.2850089
0.44460234 -0.28491819 2.2851634
-0.21395057 -0.27265528 2.2834461
-0.19658273 -0.27069917 2.2838817
-0.18597648 -0.27621034 2.2858393
-0.17504707 -0.27278265 2.2865677
-0.16357043 -0.27070761 2.283951
-0.15697083 -0.27339476 2.2895467
-0.14525664 -0.27241811 2.2897761
-0.13054234 -0.27071637 2.2840235
-0.12411353 -0.27255121 2.2867308
-0.11633339 -0.2718575 2.2879131
0.13545358 -0.27568865 2.2836068
0.14799199 -0.27863234 2.28303
0.15356797 -0.27569282 2.2836413
0.16307867 -0.27899885 2.2860527
0.45255384 -0.278263 2.2855074
0.46669281 -0.27728319 2.2857113
0.47477144 -0.27475363 2.2841797
0.48083445 -0.27181262 2.2847807
-0.24388531 -0.26382601 2.2851906
-0.23518425 -0.26284772 2.2854073
-0.22438884 -0.26824173 2.2843266
-0.2066783 -0.26726583 2.2845621
-0.15572447 -0.26678872 2.2847693
-0.14627287 -0.26826149 2.2844896
-0.13767624 -0.26679355 2.2848091
-0.11387366 -0.26581958 2.2850628
-0.10316879 -0.26019189 2.2800703
0.10908401 -0.26220822 2.2801316
0.1151644 -0.26294029 2.286171
0.12475798 -0.26588351 2.2855887
0.48690978 -0.26593101 2.2859819
0.49300984 -0.26593101 2.2859819
0.50524467 -0.26029685 2.280936
0.7797004 -0.26222807 2.2802954
-0.26375219 -0.2554093 2.2848153
-0.25424653 -0.2599026 2.2859724
-0.2425276 -0.25819594 2.2801793
-0.2339662 -0.25672698 2.2804914
-0.10780791 -0.25838947 2.284538
-0.094880968 -0.25798279 2.2867088
-0.084224962 -0.25610861 2.2850597
-0.076363593 -0.25909328 2.2834392
-0.065138295 -0.25566465 2.2841594
-0.05476008 -0.25284851 2.2857888
0.10755965 -0.25411612 2.2879584
0.49914262 -0.25808892 2.2875831
0.50531918 -0.25024635 2.2891841
0.51449811 -0.25294197 2.2824159
0.72543967 -0.25733507 2.2813637
0.73494434 -0.25451368 2.2850235
0.74612349 -0.25463441 2.2839477
0.75337213 -0.2537744 2.2851405
0.77412015 -0.25867331 2.2841177
0.78445226 -0.2574861 2.2853737
0.79751492 -0.25102928 2.2845919
0.80584484 -0.25021029 2.2888865
0.81454861 -0.2530272 2.2851918
0.82593131 -0.25841731 2.2840776
0.83610225 -0.2517969 2.2854006
0.84236872 -0.25044778 2.282557
0.86627948 -0.25338405 2.2819188
0.87567425 -0.25191092 2.282197
0.89413965 -0.25092587 2.2823577
0.92126787 -0.25238988 2.2820058
-0.31495476 -0.24151099 2.2834156
-0.30923069 -0.2405315 2.2836218
-0.28490788 -0.2405362 2.2836604
-0.27464339 -0.24699283 2.2844412
-0.051449537 -0.24941909 2.2823594
-0.04351376 -0.24488623 2.2863994
-0.033685207 -0.24746288 2.2827938
-0.026408514 -0.24411462 2.2855589
-0.016554594 -0.24256448 2.2838202
0.056342095 -0.24062251 2.2843726
0.085750408 -0.24545093 2.2855327
0.096756488 -0.24443287 2.2868023
0.10058835 -0.24847792 2.2828813
0.5114916 -0.24730542 2.289784
0.52686501 -0.24705803 2.2835984
0.53620279 -0.24166451 2.284682
0.5423913 -0.24068376 2.2848778
0.65621454 -0.24361649 2.2842104
0.66559756 -0.24165405 2.2845957
0.67482984 -0.24165286 2.284586
0.68414956 -0.2406711 2.2847733
0.69333827 -0.24116006 2.2846637
0.70564717 -0.24115825 2.2846489
0.71472538 -0.24262762 2.2843409
0.72331804 -0.24887787 2.286181
0.7571342 -0.24825974 2.2893679
0.76739383 -0.24744038 2.2853711
0.79401946 -0.247272 2.2895081
0.80599636 -0.24849442 2.2830174
0.8470667 -0.24701519 2.2873886
0.85506582 -0.24750313 2.2831259
0.86342621 -0.2466846 2.2874229
0.87355494 -0.24725389 2.2893586
0.88263583 -0.24737449 2.2862091
0.90595388 -0.24773628 2.2850502
0.91316473 -0.2473667 2.286145
0.92832935 -0.24748532 2.282979
0.93581259 -0.24061941 2.2843468
-0.32319474 -0.23562562 2.2845879
-0.30420572 -0.23759039 2.2842219
-0.29542053 -0.23661132 2.2844331
-0.011565268 -0.23766284 2.2848196
-0.0032631904 -0.23374268 2.2856283
0.0054992735 -0.23178388 2.2860427
0.015122533 -0.23374765 2.2856684
0.023701429 -0.23080815 2.2862797
0.049833506 -0.23865937 2.284754
0.064486161 -0.23523107 2.2854762
0.074150503 -0.23768497 2.2850022
0.548715 -0.23479965 2.2860603
0.55497199 -0.23197708 2.2834921
0.64448774 -0.23491132 2.2828374
-0.33346751 -0.2239767 2.2837892
0.028622389 -0.22492594 2.2874761
0.034974843 -0.22553749 2.2842355
0.041929722 -0.22983211 2.2865162
0.56453896 -0.22363964 2.2851524
0.57392943 -0.22205034 2.2886164
0.58217943 -0.22253396 2.2843182
0.59263235 -0.22032261 2.2826498
0.60511869 -0.22008678 2.2889929
0.61439806 -0.22069392 2.2857134
0.62668788 -0.22277212 2.2821393
0.63606477 -0.2221628 2.2853999
0.64183873 -0.2289089 2.2871864
0.9443357 -0.22885001 2.2867005
0.95527196 -0.22533125 2.285296
-0.34434673 -0.21122491 2.2863243
0.57400644 -0.21934275 2.2828546
0.58657789 -0.21714641 2.289597
0.59685451 -0.21918501 2.2870779
0.60512292 -0.21934056 2.2828367
0.62384152 -0.21910459 2.2891765
0.63018775 -0.21714267 2.2895663
0.96549511 -0.2157246 2.286154
0.97252709 -0.21142609 2.2838407
-0.35525852 -0.20643684 2.2841167
0.97957301 -0.20750074 2.2846055
0.98750705 -0.19965112 2.2861483
0.9948312 -0.19436902 2.284008
1.3926066 -0.19379272 2.2833967
1.4052387 -0.19367534 2.2865729
1.4139622 -0.19514596 2.2862744
1.4245176 -0.19182718 2.2837555
1.0039532 -0.18161243 2.2865043
1.3791547 -0.18017173 2.2829061
1.3859049 -0.18717086 2.2847059
1.4025757 -0.18484694 2.2883253
1.4346321 -0.18212892 2.2824774
1.0155098 -0.17190965 2.2851856
1.0243685 -0.17436056 2.2846866
1.4362632 -0.17895812 2.2894673
1.0334482 -0.16258319 2.2869747
1.3774858 -0.16839658 2.2852104
1.4462374 -0.16937126 2.2849629
1.4558442 -0.16152014 2.2864914
1.0416552 -0.1543487 2.2853403
1.3770831 -0.1528053 2.2850373
1.4667845 -0.15770441 2.2840185
1.474658 -0.15668622 2.2852871
1.482823 -0.15721285 2.2841074
1.4939365 -0.15353216 2.2848184
1.0506201 -0.14316677 2.2842519
1.2738514 -0.1401709 2.2843983
1.3564073 -0.14015655 2.2842801
1.3687407 -0.14113654 2.2840762
1.3747163 -0.14211725 2.28388
1.505083 -0.1498512 2.2855303
1.5125346 -0.14739725 2.2860031
1.5206599 -0.14308846 2.2836058
1.058672 -0.13629393 2.2855623
1.0655406 -0.13432904 2.2859278
1.0752387 -0.13383582 2.2860029
1.0844412 -0.13530616 2.2857003
1.094269 -0.13432205 2.2858701
1.1067655 -0.13530074 2.2856555
1.1168611 -0.13333485 2.2860143
1.1942705 -0.13037193 2.2864325
1.2173173 -0.13821968 2.2848744
1.2233627 -0.13919985 2.2846739
1.2346278 -0.13379861 2.285696
1.2452993 -0.13036075 2.2863405
1.2666268 -0.13330123 2.2857361
1.2850654 -0.13526085 2.2853274
1.3087184 -0.13132985 2.2860487
1.313346 -0.13623726 2.285095
1.3200588 -0.13525459 2.2852747
1.3458796 -0.13426858 2.285429
1.3522477 -0.1342676 2.2854209
1.3631313 -0.13917406 2.284461
1.5288094 -0.13916196 2.2843614
1.5356511 -0.13818046 2.2845509
1.5640094 -0.13229112 2.2856905
1.0984997 -0.12962227 2.2802477
1.1054113 -0.12765701 2.2806082
1.1150031 -0.12765466 2.2805896
1.1260653 -0.1226391 2.2847915
1.1328861 -0.12077719 2.281863
1.1446018 -0.12470224 2.2810936
1.1532159 -0.12813675 2.2804234
1.1664212 -0.12666103 2.2806792
1.1750256 -0.12324778 2.28567
1.1859536 -0.12581591 2.2840667
1.1948783 -0.12763663 2.2804401
1.2052019 -0.12595239 2.2872648
1.2137156 -0.12938608 2.2865863
1.2519987 -0.12937786 2.2865183
1.2606534 -0.12250511 2.2878296
1.2975111 -0.12652901 2.2837343
1.3044128 -0.12505521 2.2840066
1.3108076 -0.12466785 2.2808099
1.3292606 -0.12739998 2.2867763
1.3360038 -0.12641735 2.2869565
1.3420326 -0.12739788 2.2867589
1.5460746 -0.12934545 2.2862511
1.5568454 -0.12650628 2.283546
1.5602947 -0.1264009 2.2868209
1.5745574 -0.12307031 2.2842059
1.1367643 -0.11870979 2.2855251
1.1433139 -0.11860511 2.288805
1.1537795 -0.1156578 2.2893527
1.1632733 -0.11614631 2.2892396
1.5860813 -0.11265863 2.2894721
1.591602 -0.10009877 2.2853024
1.5774133 -0.0029490963 2.2873578
1.5847044 -0.0033010021 2.2873003
1.4388784 0.0077763274 2.2820077
1.5681518 0.00024995208 2.2872653
1.5746678 0.00084211677 2.280777
1.5862458 0.0044030342 2.2820385
1.5946203 0.0026320294 2.2868373
-0.33669409 0.01786934 2.2841558
1.4422311 0.013118692 2.2816508
1.5375706 0.01413523 2.2835991
1.5447589 0.013773955 2.2835417
1.5549011 0.012503348 2.2824428
-0.32400966 0.02556386 2.2835956
1.3397312 0.027081348 2.2821791
1.3654737 0.028390057 2.2817528
1.3711871 0.029912338 2.2815864
1.388631 0.02341152 2.2879949
1.4253371 0.023693342 2.2843766
1.4371625 0.026269969 2.2840786
1.4413198 0.025128946 2.2872248
1.5249097 0.022570305 2.2863939
-0.33611476 0.038583133 2.2889314
-0.31460243 0.030437768 2.2890604
1.2660861 0.03506878 2.2858257
1.274691 0.033323806 2.2847786
1.2827168 0.034549247 2.2856247
1.3124636 0.039744094 2.2879915
1.3283651 0.035126254 2.2880635
1.3346195 0.035689138 2.2879448
1.3448509 0.033253167 2.2838151
1.3576742 0.03575068 2.2845244
1.3694901 0.032778487 2.2876642
1.3762573 0.036079783 2.2832301
1.3889918 0.033525534 2.2873659
1.3923041 0.038864523 2.286994
1.4142785 0.035801291 2.2869048
1.4396522 0.038084887 2.2864504
1.2499669 0.04622291 2.2822976
1.2516587 0.043345138 2.2886086
1.2600172 0.040064827 2.2886958
1.2857695 0.046165794 2.2848775
1.2963285 0.044847734 2.2848089
1.3039452 0.043012913 2.2848163
1.3142948 0.043945178 2.2835889
1.322569 0.044691704 2.2813685
1.3442353 0.041595444 2.2874503
1.3516561 0.040246904 2.287436
1.3869839 0.04191969 2.2806678
1.3946496 0.049158931 2.2842677
1.4036348 0.041906014 2.2804513
-0.31154448 0.05088108 2.2821651
-0.3057344 0.051398773 2.2878423
1.2368436 0.058142297 2.2878933
1.4944602 0.057131559 2.2846403
-0.30319053 0.068771556 2.2811606
1.2319205 0.066777922 2.281328
1.4316943 0.060556225 2.2851698
1.4531319 0.068534531 2.284425
1.4645321 0.061495155 2.2847204
1.4737204 0.062826239 2.2845321
-0.33509165 0.079001248 2.2868047
1.4443063 0.071772806 2.2843318
1.4784098 0.070809476 2.2839921
-0.29546577 0.082567528 2.2860715
1.2167443 0.082545429 2.2866528
1.4236145 0.083016604 2.2838922
1.4317412 0.080723509 2.2839346
1.2123841 0.090223573 2.2802074
-0.37899429 0.11134332 2.2857211
-0.28491437 0.11678594 2.2841377
0.85299969 0.11937083 2.2898903
0.87087274 0.11997111 2.2895668
1.1946505 0.11080161 2.2852001
0.81899047 0.12941837 2.2868776
0.82551116 0.12799172 2.2839382
0.83477736 0.12479138 2.2859313
0.84597367 0.12176801 2.2839844
0.85517079 0.12393827 2.2856593
0.86306268 0.12431172 2.286489
0.87702328 0.1270777 2.2890182
1.1785737 0.12850946 2.2843215
-0.33102828 0.13581811 2.2893262
0.80338532 0.13910113 2.289434
0.81153107 0.13328387 2.2867584
0.82443404 0.130914 2.2896154
0.86609447 0.13164428 2.2830603
0.87458658 0.13291262 2.2828462
0.88423234 0.1362976 2.2863727
1.1676595 0.13710216 2.2868831
-0.27505851 0.14690401 2.2879624
0.77603757 0.14873751 2.2892621
0.78596932 0.14585355 2.2863922
0.79413259 0.14784849 2.2861342
0.8022359 0.14202739 2.2834637
0.88482076 0.14441927 2.2819836
0.89280933 0.14446278 2.2857292
1.1557164 0.14762095 2.2863798
0.76676404 0.15798467 2.2888246
0.77456474 0.15264295 2.2832685
0.89773589 0.15162887 2.2832704
0.90564698 0.15637353 2.2828529
1.1160961 0.15867615 2.2833366
1.1255777 0.15801725 2.2832389
1.1348209 0.15784095 2.2831154
1.1446084 0.15300548 2.2871714
-0.32660869 0.16243267 2.2823267
-0.27294159 0.16222179 2.2815974
0.73676586 0.16788918 2.2858188
0.74580383 0.16719042 2.2857165
0.75529116 0.16527182 2.2856832
0.76459527 0.16384338 2.2827504
0.90741408 0.16156992 2.28635
0.91396487 0.16695079 2.2830272
0.92202389 0.16893381 2.2856531
1.0789723 0.16592047 2.2834308
1.0847416 0.16643971 2.2833121
1.0926425 0.16866314 2.2830548
1.1054828 0.16729574 2.2858481
1.1177708 0.16134197 2.2889571
1.1240873 0.16090238 2.2888949
1.1304111 0.1604632 2.2888329
-0.36211854 0.17234018 2.2850189
0.69482452 0.17973824 2.2886021
0.7024281 0.1743736 2.28882
0.71887916 0.17736903 2.2855167
0.72706223 0.1705443 2.2858105
0.92687231 0.17138633 2.2854216
0.93477249 0.17360958 2.2851567
0.94222736 0.17680088 2.2848382
0.95272386 0.17976198 2.2844868
1.0372213 0.17324908 2.2874405
1.0434067 0.17683119 2.2861576
1.0523475 0.17494655 2.2871029
1.0644375 0.17670773 2.2858453
1.0760463 0.17170089 2.2888856
1.0854275 0.17103308 2.2887919
1.0954337 0.17495802 2.2883887
-0.32795298 0.18549405 2.2865534
-0.26388571 0.18823799 2.2828259
0.69629794 0.18390864 2.2826428
0.70427847 0.18613659 2.2852156
0.71004868 0.18615443 2.2822828
0.94571823 0.18215595 2.2844448
0.9579643 0.18124171 2.2843115
0.96322477 0.18272078 2.2869997
0.99464464 0.1872298 2.2852714
1.0032365 0.18581784 2.2861853
1.0238529 0.18414563 2.2850235
1.0533662 0.18075475 2.2828803
-0.33113307 0.19781217 2.2832317
-0.32696435 0.19163682 2.2808053
0.68369699 0.19587801 2.2849364
0.70876759 0.19006661 2.2877223
0.96699804 0.19364604 2.2862341
0.97525156 0.19489297 2.2860246
0.98402548 0.19299333 2.2869623
1.0058699 0.19260788 2.2857041
1.012248 0.19166966 2.2856684
-0.3507807 0.20511718 2.2831056
-0.34024966 0.20556086 2.2829399
-0.3356581 0.20194155 2.283071
0.6739347 0.2081078 2.2815371
-0.34423044 0.21225725 2.2853014
-0.25535381 0.21118027 2.2868476
0.65479755 0.21444578 2.2870436
0.66465503 0.21331823 2.2850969
0.67238885 0.21300453 2.2868521
-0.24632788 0.22610588 2.2867732
0.63882458 0.22913846 2.2863679
0.64586723 0.22473167 2.2865343
0.65487814 0.22302733 2.2809405
-0.24122198 0.23866636 2.2824612
0.60546041 0.23672384 2.283664
0.61336327 0.23222722 2.2828948
0.62332141 0.23354265 2.283577
0.63451737 0.23077054 2.2826452
0.64366859 0.23159581 2.2806025
-0.23510629 0.24526092 2.2872963
0.055438705 0.24418715 2.2861109
0.062501073 0.24885619 2.2848418
0.071455084 0.24915719 2.285593
0.085070059 0.24483526 2.2883444
0.095824063 0.24504945 2.2854943
0.10742646 0.247521 2.2860777
0.11464304 0.24699514 2.2851112
0.12195595 0.24513213 2.2860134
0.13072872 0.24995266 2.2873926
0.14154524 0.24991794 2.2872407
0.58764815 0.24973896 2.283145
0.59449947 0.24531743 2.2805665
0.60029143 0.24482545 2.2859907
-0.23411305 0.25342029 2.281554
-0.22856726 0.25593093 2.2865946
-0.21550986 0.25710607 2.2863545
0.048140053 0.2542831 2.2865059
0.066088051 0.250184 2.2882857
0.076757982 0.25165072 2.2853727
0.084814608 0.25086606 2.2826228
0.10362015 0.25155041 2.282315
0.12518877 0.25147519 2.2820089
0.13408408 0.25361836 2.2835486
0.14488278 0.25358209 2.2833927
0.15479536 0.25363332 2.2841403
0.5655967 0.25884151 2.285656
0.57508886 0.25465757 2.2830455
0.58094025 0.25367197 2.2830122
0.59254432 0.25219357 2.2856472
-0.2244909 0.26134172 2.2827361
-0.21489862 0.26271066 2.2807837
-0.20409808 0.2667048 2.2830348
0.02674154 0.26579931 2.2861185
0.036466114 0.26465902 2.2851682
0.044447303 0.26134714 2.2825892
0.1621307 0.264375 2.2834013
0.53215367 0.2699458 2.2854838
0.55530924 0.26598096 2.2853675
0.56229562 0.26056567 2.2801609
-0.19276938 0.27578717 2.2849765
-0.1847233 0.27903175 2.284683
-0.17624293 0.27811313 2.2863615
-0.16681024 0.27812111 2.2871056
-0.15663278 0.27651441 2.2896757
-0.14623635 0.27745003 2.289484
-0.13592167 0.27737024 2.2893543
-0.017130325 0.27697477 2.284296
-0.0057003945 0.27850437 2.287559
0.0056381575 0.27633393 2.2857811
0.015272774 0.27308515 2.2849617
0.023159146 0.27152899 2.2823
0.16656043 0.27737322 2.285224
0.19591671 0.278503 2.2847307
0.52523094 0.27537173 2.2852499
0.53623283 0.2753537 2.2850764
0.54495656 0.27361846 2.2850478
-0.18455565 0.28005022 2.2898235
-0.15627784 0.2810877 2.2841868
-0.14586294 0.28252912 2.2839651
-0.1353294 0.2854934 2.2836537
-0.12570585 0.28770211 2.2851303
-0.070524052 0.28930485 2.2877743
-0.06281238 0.28798258 2.2877522
-0.044619158 0.28962231 2.2848012
-0.037764419 0.28755155 2.2839592
-0.025699452 0.28393269 2.2840071
-0.013537943 0.28031933 2.2875555
-0.0057329386 0.28052247 2.2821825
0.0021343231 0.28072646 2.2820618
0.17416912 0.28259468 2.2847991
0.18490143 0.28204834 2.2846766
0.20504461 0.28621042 2.2876637
0.21753174 0.28599167 2.2857304
0.2243416 0.28912407 2.2863195
0.51783347 0.2827712 2.284898
-0.12156503 0.29680902 2.2879932
-0.113984 0.29572934 2.2853668
-0.10365403 0.29665905 2.2851775
-0.093637154 0.29226774 2.2853024
-0.083984844 0.29582408 2.2858274
-0.072835468 0.29565209 2.2848253
-0.065115452 0.29584512 2.2821119
-0.056536186 0.29459941 2.2838039
-0.049735233 0.29168218 2.2847507
-0.034144238 0.29157078 2.287153
-0.028962716 0.29102904 2.2871163
0.20808938 0.29119235 2.2837865
0.21352741 0.29066882 2.2890236
