ply
format ascii 1.0
comment PCL generated
obj_info Generated by CloudCompare!
element vertex 1662
property float x
property float y
property float z
end_header
-0.188101 0.113635 2.022803 
0.882276 0.115187 2.024520 
0.865087 0.127753 2.025674 
0.872871 0.123413 2.025231 
-0.180448 0.134986 2.026936 
0.820686 0.133837 2.027086 
0.833363 0.139520 2.021307 
0.844744 0.133485 2.023578 
0.854821 0.130861 2.026102 
0.814030 0.143321 2.024909 
0.825857 0.141025 2.025454 
0.835360 0.142214 2.027237 
-0.173021 0.155820 2.022674 
-0.164677 0.157073 2.025293 
-0.134481 0.157268 2.027224 
-0.129244 0.153707 2.026819 
0.803239 0.153439 2.024817 
-0.164220 0.162663 2.020161 
-0.153931 0.165772 2.021941 
-0.149953 0.169486 2.025776 
-0.139364 0.165399 2.025178 
-0.122913 0.165872 2.024745 
0.787100 0.167611 2.027020 
0.791923 0.162503 2.023722 
-0.144403 0.170996 2.022973 
-0.116722 0.176509 2.025342 
-0.103127 0.175717 2.024900 
0.774029 0.179038 2.025176 
-0.112543 0.185289 2.022212 
-0.094426 0.185071 2.022594 
-0.088742 0.189108 2.025466 
0.747874 0.186767 2.023441 
0.757765 0.183622 2.025847 
0.766943 0.182432 2.025555 
-0.088624 0.192148 2.020215 
0.727529 0.195019 2.021627 
0.732825 0.196501 2.024417 
0.740508 0.191144 2.023895 
-0.082632 0.202765 2.023563 
-0.074374 0.206028 2.023572 
-0.055442 0.206220 2.023049 
-0.049954 0.207719 2.025727 
0.716032 0.203306 2.025252 
0.725206 0.201861 2.027754 
-0.063313 0.212064 2.023709 
-0.047014 0.215547 2.023500 
-0.025348 0.219515 2.020482 
-0.011873 0.218208 2.020004 
0.668158 0.217900 2.024532 
0.676783 0.217668 2.024311 
0.685095 0.218417 2.024160 
0.696699 0.217946 2.026641 
0.703739 0.214044 2.026227 
-0.044085 0.223373 2.021303 
-0.036006 0.223090 2.023753 
-0.027945 0.221797 2.026134 
-0.017193 0.222769 2.020498 
-0.003618 0.226002 2.025761 
0.004468 0.228748 2.023038 
0.015277 0.229719 2.025507 
0.026071 0.228674 2.025132 
0.633721 0.227908 2.023236 
0.644464 0.220808 2.025287 
0.652443 0.222534 2.025208 
0.660732 0.223280 2.025059 
0.689649 0.221851 2.024274 
-0.022223 0.237432 2.027110 
-0.014199 0.237146 2.026866 
0.009891 0.235285 2.023369 
0.015231 0.230728 2.020187 
0.022434 0.231374 2.021833 
0.033198 0.238053 2.023824 
0.044868 0.238934 2.025359 
0.058346 0.238635 2.024967 
0.577162 0.237941 2.022511 
0.585516 0.238189 2.022325 
0.605295 0.237950 2.024585 
0.616251 0.238936 2.024387 
0.622175 0.237957 2.024181 
0.054634 0.243344 2.021833 
0.066376 0.241374 2.024946 
0.077052 0.245359 2.024943 
0.085142 0.245079 2.024702 
0.092382 0.244719 2.028066 
0.101405 0.244522 2.029599 
0.125556 0.247204 2.023759 
0.136526 0.244663 2.023278 
0.144489 0.247396 2.023263 
0.182425 0.248789 2.027739 
0.197153 0.246084 2.025359 
0.207073 0.246726 2.024245 
0.215257 0.246707 2.024028 
0.222407 0.248021 2.024834 
0.568674 0.248265 2.023414 
0.575016 0.245807 2.028575 
0.584177 0.243103 2.028179 
0.595575 0.242368 2.025113 
0.609310 0.243352 2.024845 
0.095586 0.254083 2.025071 
0.104514 0.255221 2.026700 
0.116859 0.259022 2.024853 
0.125259 0.253725 2.029603 
0.136163 0.251682 2.029169 
0.147660 0.254735 2.027287 
0.154629 0.258384 2.029146 
0.161937 0.256357 2.025234 
0.173975 0.252316 2.025518 
0.185675 0.252781 2.024347 
0.193071 0.250761 2.022209 
0.225419 0.253672 2.021565 
0.233480 0.254899 2.024133 
0.244572 0.253125 2.023716 
0.255304 0.254595 2.023540 
0.262962 0.259062 2.026354 
0.276617 0.258779 2.025982 
0.285141 0.256020 2.022870 
0.293132 0.257495 2.022770 
0.499060 0.259142 2.020412 
0.514516 0.252968 2.025048 
0.521528 0.258135 2.025226 
0.549935 0.255651 2.024368 
0.554723 0.258600 2.027173 
0.563092 0.255152 2.027649 
0.111418 0.260548 2.025111 
0.154440 0.260388 2.023940 
0.165277 0.260351 2.029001 
0.266304 0.261046 2.022823 
0.276106 0.262266 2.020864 
0.299932 0.267429 2.025989 
0.303568 0.267088 2.022292 
0.314259 0.268386 2.022112 
0.324992 0.269352 2.021905 
0.337662 0.269817 2.025194 
0.399357 0.261257 2.023037 
0.407784 0.265038 2.024886 
0.445176 0.265880 2.027620 
0.455702 0.267838 2.024796 
0.467122 0.265844 2.021671 
0.486378 0.266062 2.023916 
0.494376 0.263421 2.024440 
0.503562 0.263574 2.026032 
0.524081 0.269458 2.020522 
0.533096 0.266739 2.022816 
0.542142 0.264022 2.025123 
0.309927 0.273369 2.026149 
0.321248 0.270356 2.025649 
0.331867 0.271818 2.022799 
0.344797 0.276003 2.025446 
0.366184 0.273054 2.026489 
0.373654 0.272045 2.028018 
0.384306 0.273341 2.026053 
0.393646 0.272164 2.027527 
0.402870 0.271649 2.029056 
0.414688 0.276076 2.025482 
0.429061 0.277032 2.026086 
0.434736 0.276031 2.025876 
0.444038 0.270822 2.022593 
0.454711 0.272285 2.025123 
0.465718 0.272265 2.027545 
0.477070 0.270517 2.024452 
0.526196 0.272163 2.026061 
0.354616 0.281930 2.022943 
0.362328 0.284138 2.020238 
0.417155 0.282007 2.029400 
0.422160 0.283971 2.026736 
0.394925 -0.361517 2.038632 
0.403624 -0.363007 2.038488 
0.416144 -0.364266 2.036447 
0.425691 -0.362941 2.036568 
1.337875 -0.362564 2.038978 
0.267544 -0.353578 2.039431 
0.273310 -0.353578 2.039428 
0.333829 -0.352582 2.039499 
0.346414 -0.353343 2.037493 
0.356151 -0.354998 2.037335 
0.362817 -0.353377 2.033627 
0.377254 -0.353723 2.036483 
0.386055 -0.356454 2.036222 
0.394700 -0.355859 2.033389 
0.403438 -0.357846 2.033204 
0.412090 -0.357846 2.033202 
0.429305 -0.354865 2.033474 
0.435107 -0.356551 2.039098 
0.458127 -0.351585 2.039567 
0.463940 -0.353572 2.039378 
0.494783 -0.353340 2.037470 
0.263754 -0.344441 2.034494 
0.276452 -0.346162 2.036261 
0.295835 -0.347270 2.037116 
0.304256 -0.343942 2.034520 
0.324930 -0.349603 2.039785 
0.333460 -0.346921 2.034233 
0.342288 -0.348907 2.034047 
0.371196 -0.348757 2.036951 
0.434847 -0.345924 2.034299 
0.440531 -0.340957 2.034757 
0.458052 -0.345924 2.034297 
0.467711 -0.345162 2.036301 
0.485126 -0.347149 2.036115 
0.498648 -0.349897 2.033928 
0.504473 -0.344930 2.034387 
0.513208 -0.342447 2.034617 
0.521857 -0.346917 2.034205 
0.215737 -0.331033 2.035758 
0.224342 -0.330039 2.035845 
0.233855 -0.336495 2.035244 
0.245363 -0.335501 2.035329 
0.253910 -0.334011 2.035462 
0.286390 -0.338976 2.034987 
0.315271 -0.336987 2.035158 
0.324230 -0.339967 2.034879 
0.446285 -0.337976 2.035032 
0.452143 -0.339963 2.034847 
0.475409 -0.338970 2.034938 
0.527780 -0.339963 2.034847 
0.533721 -0.334003 2.035399 
0.554124 -0.334500 2.035355 
0.565895 -0.331520 2.035633 
0.574633 -0.332016 2.035588 
0.583433 -0.331023 2.035682 
0.592241 -0.330030 2.035776 
1.526492 -0.332573 2.036031 
1.535495 -0.332075 2.036073 
0.188862 -0.325717 2.033339 
0.194554 -0.324372 2.030532 
0.203504 -0.325862 2.030392 
0.224097 -0.327351 2.030245 
0.230169 -0.329338 2.030063 
0.539729 -0.326201 2.033189 
0.545544 -0.327691 2.033053 
0.568942 -0.327341 2.030163 
0.574791 -0.327341 2.030164 
0.583669 -0.324857 2.030389 
0.596449 -0.323270 2.032490 
1.525254 -0.322786 2.034026 
1.539912 -0.322437 2.031142 
1.546584 -0.325219 2.034761 
1.554842 -0.322288 2.034057 
0.166405 -0.312057 2.034600 
0.175087 -0.311311 2.034659 
0.181671 -0.316278 2.034202 
0.196443 -0.317623 2.037009 
0.205287 -0.318119 2.036957 
0.604857 -0.312292 2.034468 
0.613718 -0.311796 2.034515 
0.625435 -0.312790 2.034431 
0.637066 -0.314778 2.034255 
0.646176 -0.310450 2.031700 
0.666456 -0.314426 2.031353 
0.799187 -0.310173 2.037706 
0.813632 -0.311665 2.037579 
0.824968 -0.314149 2.037357 
0.834230 -0.311170 2.037639 
0.840089 -0.310817 2.034730 
0.857665 -0.310819 2.034745 
0.863608 -0.310323 2.034794 
1.519103 -0.317323 2.034530 
1.523769 -0.319457 2.031419 
1.535996 -0.318462 2.031502 
1.564727 -0.314339 2.034781 
0.097206 -0.301525 2.032654 
0.135835 -0.304359 2.035321 
0.145055 -0.306842 2.035087 
0.153629 -0.305351 2.035216 
0.646323 -0.309170 2.037719 
0.655222 -0.308072 2.034871 
0.667074 -0.307681 2.037864 
0.675961 -0.306831 2.034993 
0.685190 -0.302609 2.035381 
0.694026 -0.302858 2.035363 
0.776292 -0.305347 2.035183 
0.785224 -0.304602 2.035254 
0.795600 -0.307383 2.034027 
0.805201 -0.308827 2.034886 
0.814230 -0.306984 2.032110 
0.826210 -0.305494 2.032252 
0.834706 -0.307482 2.032081 
0.846693 -0.306347 2.035144 
0.852480 -0.306844 2.035101 
0.869729 -0.308833 2.034935 
0.876484 -0.303866 2.035392 
0.884971 -0.305605 2.035241 
0.894003 -0.304364 2.035359 
0.902622 -0.300343 2.036719 
0.912188 -0.301385 2.035646 
0.935359 -0.302524 2.032610 
0.947303 -0.302239 2.038551 
1.346869 -0.303765 2.038701 
1.355829 -0.303268 2.038750 
1.362479 -0.301282 2.038936 
1.438209 -0.302277 2.038857 
1.476317 -0.304360 2.036705 
1.482704 -0.307389 2.035451 
1.492051 -0.300289 2.039037 
1.505627 -0.302420 2.035901 
1.516004 -0.305400 2.035624 
1.569938 -0.309517 2.032288 
1.578881 -0.304258 2.038631 
1.584825 -0.304258 2.038627 
1.592812 -0.300284 2.038990 
-0.110884 -0.290616 2.033820 
-0.104738 -0.291609 2.033726 
-0.098597 -0.292602 2.033631 
-0.068989 -0.293593 2.033515 
0.012394 -0.290320 2.039668 
0.076092 -0.294051 2.037293 
0.086356 -0.296368 2.037074 
0.093167 -0.295918 2.036122 
0.103379 -0.292724 2.037395 
0.119440 -0.294425 2.036237 
0.125762 -0.296908 2.036007 
0.702787 -0.294034 2.037161 
0.714846 -0.291810 2.035386 
0.734428 -0.293705 2.037207 
0.745046 -0.295657 2.036043 
0.755866 -0.296025 2.037004 
0.763209 -0.292429 2.036349 
0.771250 -0.298888 2.035767 
0.906601 -0.299540 2.032852 
0.919149 -0.295921 2.036147 
0.925337 -0.294431 2.036290 
0.933289 -0.294053 2.037318 
0.944228 -0.297793 2.035014 
0.955309 -0.292306 2.039474 
1.373495 -0.295818 2.039444 
1.386261 -0.293335 2.039677 
1.444319 -0.296839 2.035431 
1.456452 -0.293976 2.036677 
1.467343 -0.295963 2.036496 
1.474828 -0.298591 2.033311 
1.494831 -0.293622 2.033754 
1.501938 -0.295513 2.035547 
1.510228 -0.299295 2.039125 
1.583879 -0.299579 2.033174 
1.594346 -0.296596 2.033435 
1.603900 -0.290349 2.039906 
-0.114797 -0.287494 2.037068 
-0.094876 -0.284652 2.034339 
-0.084146 -0.280676 2.034685 
-0.074116 -0.289430 2.037847 
-0.064394 -0.288623 2.033955 
-0.056446 -0.285144 2.034259 
-0.044411 -0.286493 2.037097 
-0.035207 -0.287982 2.036956 
-0.028059 -0.284882 2.036237 
0.004504 -0.280666 2.034603 
0.017640 -0.286983 2.036997 
0.027481 -0.286863 2.036009 
0.034105 -0.280662 2.034576 
0.043710 -0.284139 2.034256 
0.052280 -0.282648 2.034382 
0.064708 -0.285984 2.037047 
0.071203 -0.288608 2.033832 
0.106847 -0.289599 2.033713 
0.112150 -0.286477 2.036964 
0.707133 -0.289585 2.033598 
0.719225 -0.288312 2.039677 
0.725112 -0.288452 2.036688 
0.731107 -0.287599 2.033789 
0.766614 -0.288595 2.033722 
0.957018 -0.283645 2.034319 
1.374818 -0.284677 2.034549 
1.388260 -0.280703 2.034910 
1.394168 -0.280703 2.034912 
1.605955 -0.285665 2.034412 
-0.165263 -0.275715 2.035203 
-0.154180 -0.273230 2.035415 
-0.144874 -0.274719 2.035274 
-0.133335 -0.273724 2.035352 
-0.126009 -0.278692 2.034901 
-0.091111 -0.276701 2.035047 
-0.017127 -0.276693 2.034979 
-0.005276 -0.276691 2.034968 
0.010202 -0.279671 2.034687 
0.057410 -0.278672 2.034734 
0.965534 -0.271720 2.035394 
0.989529 -0.270729 2.035505 
1.003681 -0.273712 2.035252 
1.015662 -0.273217 2.035307 
1.024190 -0.274708 2.035182 
1.363085 -0.277224 2.035214 
1.405333 -0.275238 2.035405 
1.424184 -0.272754 2.035632 
1.435853 -0.273251 2.035588 
1.442366 -0.278716 2.035098 
-0.177761 -0.263432 2.033317 
-0.140399 -0.269750 2.035715 
0.975772 -0.265759 2.035937 
0.984486 -0.266754 2.035856 
0.996393 -0.266755 2.035867 
1.023892 -0.263057 2.030221 
1.035620 -0.264163 2.033133 
1.289359 -0.260104 2.030719 
1.296259 -0.265572 2.030249 
1.307199 -0.260823 2.036658 
1.315746 -0.261818 2.036573 
1.325922 -0.266290 2.036178 
1.333546 -0.263991 2.032398 
1.341727 -0.263807 2.036408 
1.357178 -0.264324 2.032382 
1.366299 -0.261103 2.030675 
1.377399 -0.263092 2.030507 
1.405912 -0.266075 2.030256 
1.418236 -0.265439 2.033296 
1.448904 -0.263094 2.030523 
-0.193650 -0.250152 2.031489 
-0.187220 -0.252003 2.034333 
1.046624 -0.255965 2.033869 
1.052979 -0.254475 2.034007 
1.254003 -0.250657 2.031514 
1.265945 -0.253715 2.033262 
1.275172 -0.255944 2.035074 
1.283827 -0.253716 2.033274 
1.294882 -0.253866 2.037273 
1.305883 -0.255992 2.034093 
1.315384 -0.254141 2.031254 
1.323195 -0.257124 2.030999 
1.347026 -0.257126 2.031012 
1.354357 -0.254367 2.037260 
1.373053 -0.259115 2.030851 
1.444667 -0.259117 2.030868 
1.625359 -0.259468 2.033761 
-0.232410 -0.241934 2.038284 
-0.226092 -0.242927 2.038190 
-0.216624 -0.244417 2.038049 
-0.203908 -0.243105 2.034127 
-0.196127 -0.242924 2.038165 
1.063755 -0.247519 2.034631 
1.074061 -0.242913 2.038074 
1.080066 -0.242914 2.038080 
1.128365 -0.241926 2.038212 
1.185349 -0.241569 2.035269 
1.212491 -0.241075 2.035335 
1.225990 -0.245549 2.034953 
1.235467 -0.244059 2.035093 
1.244784 -0.242703 2.032197 
1.256422 -0.244423 2.038094 
1.263486 -0.249889 2.037609 
-0.244030 -0.233621 2.035999 
-0.237198 -0.236105 2.035775 
-0.225183 -0.235741 2.032768 
-0.215053 -0.239219 2.032457 
-0.209371 -0.238951 2.038532 
1.074844 -0.239205 2.032342 
1.084670 -0.236588 2.035616 
1.094781 -0.232613 2.035971 
1.104735 -0.232825 2.034953 
1.115738 -0.232748 2.032943 
1.124638 -0.233611 2.035914 
1.134289 -0.234815 2.034802 
1.142708 -0.233977 2.038936 
1.155639 -0.230268 2.033197 
1.164079 -0.232621 2.036039 
1.175507 -0.234610 2.035871 
1.186287 -0.238587 2.035532 
1.196720 -0.234115 2.035933 
1.204859 -0.236850 2.035702 
1.219142 -0.239087 2.035517 
1.244335 -0.235975 2.038842 
1.250686 -0.234982 2.038935 
-0.255058 -0.228024 2.039547 
-0.248360 -0.229281 2.033348 
1.090090 -0.227278 2.033391 
1.101635 -0.229998 2.039256 
1.117424 -0.227515 2.039492 
1.143873 -0.229272 2.033272 
1.152415 -0.228103 2.037441 
-0.265117 -0.215366 2.034570 
-0.257719 -0.219341 2.034219 
-0.324383 -0.202448 2.035736 
-0.300681 -0.200458 2.035892 
-0.292495 -0.206422 2.035368 
-0.288470 -0.200457 2.035883 
-0.276423 -0.208905 2.035140 
-0.308720 -0.194621 2.033320 
-0.325738 -0.173123 2.038284 
1.465898 -0.162962 2.034312 
-0.327788 -0.157957 2.033334 
1.508471 -0.150058 2.033798 
1.516523 -0.151350 2.033543 
1.525802 -0.154547 2.033178 
1.482049 -0.142356 2.034778 
1.499839 -0.147811 2.034108 
1.545952 -0.140637 2.033250 
1.394828 -0.133567 2.030610 
1.442903 -0.136806 2.035977 
1.458168 -0.138457 2.035532 
1.464356 -0.136892 2.035445 
1.471720 -0.137237 2.035249 
1.523565 -0.139627 2.033856 
1.536026 -0.136490 2.033673 
1.549108 -0.134304 2.033433 
1.551639 -0.138115 2.039947 
1.627570 -0.131281 2.038289 
-0.346519 -0.123154 2.036274 
1.376784 -0.120580 2.038272 
1.383703 -0.126506 2.034528 
1.426384 -0.121156 2.037040 
1.480542 -0.128378 2.035401 
1.523083 -0.127574 2.034370 
1.614165 -0.122407 2.038974 
1.363980 -0.110638 2.032395 
1.393907 -0.113993 2.031511 
1.542295 -0.112740 2.034501 
1.362938 -0.108721 2.039109 
1.383386 -0.107889 2.038648 
1.398303 -0.109564 2.031601 
1.405128 -0.105258 2.036024 
1.413801 -0.106154 2.031371 
1.597605 -0.108776 2.039923 
-0.362919 -0.095312 2.038627 
-0.357596 -0.091555 2.032494 
1.346904 -0.093021 2.033604 
1.589186 -0.096423 2.033973 
1.334860 -0.084025 2.034302 
1.378189 -0.087187 2.039648 
1.384774 -0.086595 2.039513 
1.534361 -0.084220 2.035886 
1.544462 -0.083311 2.035666 
1.562921 -0.084170 2.035157 
1.573395 -0.083731 2.034904 
1.589548 -0.086310 2.034380 
1.549307 -0.079851 2.035685 
1.296916 -0.053166 2.036613 
1.313073 -0.057760 2.036014 
1.297942 -0.042993 2.037047 
1.278140 -0.031670 2.038036 
1.283952 -0.036182 2.031306 
1.240041 -0.010906 2.039891 
1.259963 -0.011123 2.033089 
1.262160 -0.014963 2.039176 
1.235775 -0.003220 2.034055 
1.245257 -0.008417 2.036729 
1.547745 -0.004387 2.038835 
1.227404 0.000059 2.034415 
1.246217 0.001752 2.034039 
1.215418 0.010069 2.035185 
1.186484 0.027626 2.036724 
1.194870 0.028047 2.034477 
-0.264888 0.035143 2.030976 
-0.227021 0.039050 2.036021 
1.174423 0.038136 2.034438 
-0.264043 0.041262 2.037189 
-0.242992 0.049712 2.034247 
-0.234508 0.048964 2.033963 
-0.226663 0.042616 2.030408 
-0.217914 0.043398 2.036049 
1.136316 0.045628 2.034701 
1.161920 0.049614 2.032244 
-0.253994 0.053006 2.034770 
-0.245421 0.053019 2.037432 
-0.239946 0.051501 2.031378 
-0.217071 0.051544 2.030740 
1.107780 0.055830 2.033862 
1.116665 0.057131 2.036760 
1.124454 0.054304 2.036436 
1.139652 0.055672 2.036141 
1.145733 0.056219 2.036022 
1.154860 0.057041 2.035845 
-0.209474 0.068857 2.034576 
0.950636 0.069913 2.038287 
1.027298 0.065729 2.030223 
1.032011 0.069172 2.036342 
1.043829 0.066205 2.033895 
1.076890 0.067163 2.035176 
1.083868 0.065775 2.034939 
1.149329 0.061580 2.039246 
0.949308 0.072823 2.032448 
0.956018 0.076449 2.034490 
0.973910 0.078059 2.034152 
0.984698 0.077016 2.031840 
0.994233 0.076611 2.034602 
1.005367 0.079380 2.031478 
1.017049 0.074381 2.033942 
1.025103 0.070567 2.036576 
1.046979 0.077074 2.033380 
1.066626 0.075312 2.035835 
1.087502 0.071142 2.035126 
1.094002 0.070719 2.034949 
-0.201906 0.087182 2.032713 
0.938781 0.082961 2.036238 
0.957915 0.081657 2.038718 
0.964258 0.081222 2.035548 
0.976629 0.081325 2.038264 
0.982584 0.081861 2.038152 
1.003204 0.084221 2.037788 
1.047642 0.088724 2.036969 
1.053906 0.084251 2.032584 
-0.201330 0.092269 2.038746 
0.897078 0.094332 2.034832 
0.905322 0.096586 2.034760 
0.914375 0.096896 2.034565 
0.924879 0.093809 2.034153 
-0.194667 0.102954 2.033572 
0.884802 0.109356 2.035929 
-0.193692 0.112109 2.039816 
-0.187809 0.115668 2.034236 
0.875777 0.116608 2.036531 
0.881547 0.117132 2.030539 
0.846645 0.129107 2.037885 
0.856124 0.127944 2.037601 
0.865615 0.126782 2.037317 
0.871753 0.126331 2.031290 
-0.180430 0.134476 2.035295 
0.819105 0.138223 2.036109 
0.824654 0.139229 2.033128 
0.838103 0.135400 2.032595 
0.845423 0.132026 2.032232 
0.852943 0.135727 2.032265 
0.862011 0.135535 2.032041 
-0.173527 0.149210 2.036093 
0.810886 0.144039 2.033723 
0.824957 0.146308 2.039319 
0.833152 0.140496 2.035908 
-0.173477 0.150228 2.030603 
-0.167459 0.155807 2.033599 
-0.134299 0.158789 2.035645 
0.808354 0.150862 2.039951 
-0.161581 0.160368 2.033744 
-0.153081 0.163905 2.033749 
-0.144801 0.164902 2.033588 
-0.139611 0.161337 2.033195 
-0.125676 0.164608 2.033035 
0.798496 0.161068 2.034980 
-0.122398 0.171956 2.036201 
-0.116609 0.177523 2.030913 
-0.103979 0.175634 2.032260 
0.769548 0.175602 2.033627 
0.775932 0.174161 2.033392 
0.783621 0.174516 2.034184 
-0.112637 0.182245 2.034790 
-0.100051 0.180016 2.036123 
-0.094221 0.187095 2.033694 
0.747484 0.188233 2.034883 
0.754872 0.183858 2.034453 
0.761044 0.182901 2.034254 
-0.088456 0.193158 2.033952 
0.724339 0.199088 2.035115 
0.736539 0.194557 2.035506 
-0.082566 0.202257 2.034415 
-0.074304 0.205520 2.034406 
-0.063401 0.207762 2.034257 
-0.055297 0.208242 2.031351 
-0.049837 0.209741 2.031304 
0.705506 0.209155 2.034279 
0.716585 0.202085 2.036409 
-0.054986 0.215321 2.037254 
-0.046015 0.215458 2.035212 
-0.038774 0.217287 2.034236 
0.004485 0.215633 2.035649 
0.650676 0.219346 2.030610 
0.697625 0.215502 2.034842 
0.710128 0.212590 2.039970 
-0.033098 0.227878 2.034804 
-0.027730 0.226846 2.037282 
-0.000893 0.222208 2.033530 
0.007230 0.224955 2.033494 
0.015322 0.228710 2.030833 
0.023450 0.225659 2.033102 
0.031568 0.229159 2.035824 
0.637786 0.224234 2.031220 
0.646554 0.223509 2.033741 
0.655307 0.222784 2.033491 
0.663275 0.224510 2.033407 
0.673169 0.226073 2.032342 
0.686411 0.223316 2.032792 
-0.024872 0.235674 2.035107 
-0.006128 0.234841 2.034539 
0.009941 0.231250 2.031158 
0.015382 0.233751 2.036571 
0.035097 0.234520 2.032496 
0.045021 0.232640 2.032995 
0.055780 0.235373 2.032889 
0.067403 0.238772 2.031913 
0.625493 0.236734 2.035045 
0.632943 0.230852 2.034513 
0.641532 0.230615 2.037063 
0.675171 0.231626 2.036330 
-0.021983 0.246521 2.033106 
-0.013077 0.246647 2.036433 
0.063807 0.240125 2.035692 
0.077096 0.246364 2.033067 
0.085159 0.246084 2.030147 
0.093363 0.244297 2.035181 
0.104100 0.245768 2.034993 
0.160829 0.247849 2.033633 
0.175409 0.246808 2.034977 
0.184449 0.247284 2.036571 
0.215142 0.248705 2.032272 
0.224578 0.245520 2.033615 
0.568867 0.248268 2.039830 
0.575081 0.245808 2.034055 
0.584207 0.243351 2.036427 
0.594712 0.242533 2.035211 
0.605218 0.248016 2.033474 
0.614018 0.246790 2.035928 
0.621444 0.240903 2.038149 
-0.016555 0.252050 2.033342 
0.085076 0.250104 2.035793 
0.111681 0.256533 2.032841 
0.127658 0.259984 2.035324 
0.135741 0.259704 2.035091 
0.149512 0.255396 2.037120 
0.155052 0.253375 2.036841 
0.164141 0.252512 2.037443 
0.171511 0.250822 2.038935 
0.187787 0.250275 2.033090 
0.195588 0.254503 2.035858 
0.206323 0.255472 2.032957 
0.214306 0.257697 2.038274 
0.220294 0.252188 2.037765 
0.233425 0.256396 2.035006 
0.245124 0.257114 2.033856 
0.255269 0.255842 2.034409 
0.266239 0.255317 2.034096 
0.276138 0.256207 2.034800 
0.283534 0.255195 2.032749 
0.293595 0.255007 2.033384 
0.516172 0.257648 2.030762 
0.549202 0.258604 2.030026 
0.554684 0.259093 2.035367 
0.564585 0.253432 2.034779 
0.573762 0.250725 2.039860 
0.595811 0.251701 2.039396 
0.603974 0.252436 2.039247 
0.116861 0.260527 2.032975 
0.122205 0.261509 2.035571 
0.143770 0.260426 2.034928 
0.205619 0.263468 2.038870 
0.241082 0.261115 2.037809 
0.303133 0.264686 2.033778 
0.316650 0.265399 2.033485 
0.323441 0.268529 2.034416 
0.408954 0.269162 2.039510 
0.414332 0.269646 2.039409 
0.447963 0.266123 2.035666 
0.455397 0.265617 2.034555 
0.466599 0.268809 2.035389 
0.486472 0.266063 2.032027 
0.495373 0.263586 2.034358 
0.505552 0.263409 2.035010 
0.512376 0.261840 2.033836 
0.522853 0.267656 2.033052 
0.534526 0.265345 2.034431 
0.543438 0.266483 2.034290 
0.310384 0.270883 2.034005 
0.326514 0.271833 2.030980 
0.334423 0.273550 2.033576 
0.345008 0.275259 2.033422 
0.356235 0.278537 2.034251 
0.364787 0.271241 2.035350 
0.376160 0.276045 2.034040 
0.396023 0.279092 2.035085 
0.404417 0.273462 2.036304 
0.417206 0.273268 2.035980 
0.425806 0.275722 2.035926 
0.432902 0.276696 2.037605 
0.441610 0.270088 2.036077 
0.457997 0.270552 2.038404 
0.465692 0.272759 2.035657 
0.475719 0.276688 2.032977 
0.484649 0.273959 2.037972 
0.518379 0.270946 2.036973 
0.529080 0.271914 2.031375 
0.352291 0.280201 2.030895 
0.387338 0.281838 2.035477 
0.473696 0.285574 2.038957 
1.344471 -0.402639 2.046386 
1.315768 -0.390729 2.047580 
1.324429 -0.397015 2.046949 
1.333366 -0.395354 2.044299 
1.340122 -0.399662 2.046685 
1.325785 -0.386082 2.042391 
1.341480 -0.382111 2.042784 
1.357142 -0.385768 2.048088 
1.314508 -0.379812 2.048679 
1.321736 -0.375162 2.043459 
1.348762 -0.378141 2.043175 
0.386288 -0.362209 2.044335 
0.394833 -0.360223 2.044528 
0.406400 -0.361216 2.044429 
0.412162 -0.361215 2.044428 
1.316217 -0.368058 2.047010 
1.369488 -0.369890 2.049690 
0.267541 -0.354271 2.045150 
0.276243 -0.354767 2.045097 
0.284843 -0.354270 2.045143 
0.290234 -0.350299 2.045529 
0.319144 -0.350298 2.045519 
0.325318 -0.355261 2.045031 
0.333829 -0.353276 2.045223 
0.345451 -0.354268 2.045123 
0.354308 -0.357246 2.044829 
0.377385 -0.357245 2.044823 
0.400554 -0.359230 2.044624 
0.417786 -0.357244 2.044816 
0.426401 -0.355755 2.044960 
0.435106 -0.357244 2.044813 
0.440717 -0.350295 2.045493 
0.458126 -0.352280 2.045297 
0.466838 -0.354762 2.045054 
0.492856 -0.352280 2.045296 
1.331285 -0.350647 2.040110 
1.364350 -0.354315 2.045512 
0.261020 -0.346974 2.042964 
0.286774 -0.343646 2.040366 
0.295831 -0.348313 2.045721 
0.304075 -0.343001 2.043332 
0.314683 -0.342553 2.042398 
0.359584 -0.349303 2.045604 
0.365316 -0.347962 2.042829 
0.371110 -0.348310 2.045699 
0.444473 -0.344866 2.042145 
0.452214 -0.344982 2.043101 
0.475453 -0.346471 2.042958 
0.483180 -0.344105 2.044155 
0.498657 -0.349301 2.045588 
0.504480 -0.344982 2.043105 
0.513191 -0.344982 2.043101 
0.524805 -0.345230 2.043079 
0.536509 -0.341360 2.046367 
0.545247 -0.340514 2.043537 
0.550936 -0.344634 2.040231 
1.324888 -0.345529 2.043474 
1.337801 -0.348661 2.040302 
1.351275 -0.343696 2.040778 
1.537391 -0.341407 2.046762 
1.544169 -0.343162 2.044659 
0.212562 -0.330448 2.047506 
0.234402 -0.333951 2.043259 
0.241811 -0.330738 2.041615 
0.253684 -0.333073 2.044308 
0.536583 -0.337186 2.040938 
0.555041 -0.337487 2.044805 
0.565849 -0.333812 2.044185 
0.574575 -0.334557 2.044113 
0.580430 -0.334060 2.044161 
0.819733 -0.330451 2.047534 
1.361509 -0.332772 2.041821 
1.379236 -0.332475 2.047655 
1.526485 -0.333615 2.044631 
1.534020 -0.336097 2.044387 
1.540352 -0.334756 2.041616 
1.553967 -0.337088 2.044279 
1.564255 -0.334457 2.047431 
0.188011 -0.320811 2.042588 
0.193715 -0.320521 2.048486 
0.204176 -0.325581 2.046029 
0.215892 -0.325677 2.044063 
0.225782 -0.327234 2.045860 
0.245464 -0.329219 2.045659 
0.586694 -0.324628 2.045074 
0.594500 -0.324677 2.044095 
0.604461 -0.321506 2.048321 
0.616197 -0.321506 2.048323 
0.637500 -0.324250 2.046103 
0.645167 -0.326470 2.047846 
0.806521 -0.321515 2.048400 
0.814827 -0.324142 2.045212 
0.824701 -0.323033 2.044352 
1.329673 -0.325819 2.042473 
1.371804 -0.321849 2.042864 
1.506656 -0.320561 2.048820 
1.511086 -0.323539 2.048526 
1.524244 -0.320561 2.048814 
1.561407 -0.327804 2.042269 
1.571734 -0.325172 2.045423 
0.184302 -0.315701 2.046016 
0.196366 -0.317831 2.042867 
0.598693 -0.319520 2.048514 
0.604673 -0.316829 2.042886 
0.612605 -0.315409 2.044988 
0.625235 -0.317430 2.045777 
0.633931 -0.318816 2.042706 
0.645745 -0.317823 2.042804 
0.653960 -0.313329 2.047166 
0.675664 -0.311723 2.046348 
0.681597 -0.311580 2.049315 
0.769569 -0.313570 2.049158 
0.795719 -0.314957 2.046090 
0.804475 -0.314853 2.043162 
0.810184 -0.315847 2.043072 
0.833757 -0.315208 2.046088 
0.855493 -0.313672 2.047232 
0.865251 -0.313673 2.047240 
0.875242 -0.312585 2.049314 
0.883929 -0.313082 2.049271 
0.895817 -0.312090 2.049376 
0.904497 -0.312587 2.049333 
1.327405 -0.317582 2.049100 
1.392145 -0.315598 2.049311 
1.454278 -0.313613 2.049510 
1.464626 -0.316591 2.049216 
1.515213 -0.314468 2.045511 
1.522753 -0.316882 2.043331 
1.578739 -0.316879 2.043303 
1.587708 -0.311623 2.049664 
0.079570 -0.302943 2.044359 
0.143929 -0.300952 2.044504 
0.152307 -0.304498 2.046131 
0.164932 -0.303433 2.044255 
0.174570 -0.308894 2.043730 
0.180441 -0.309601 2.049562 
0.658426 -0.305906 2.043941 
0.664492 -0.303921 2.044132 
0.670193 -0.306758 2.046824 
0.685977 -0.306144 2.045902 
0.735241 -0.305627 2.049919 
0.764716 -0.305628 2.049933 
0.774227 -0.307473 2.045815 
0.785742 -0.301941 2.044379 
0.843890 -0.307017 2.046884 
0.852318 -0.308898 2.043759 
0.869736 -0.309892 2.043677 
0.876132 -0.306914 2.043964 
0.884749 -0.307908 2.043876 
0.896661 -0.306916 2.043978 
0.905263 -0.307909 2.043890 
0.913077 -0.308145 2.045839 
0.924039 -0.301952 2.044470 
1.382988 -0.308939 2.044096 
1.457165 -0.300002 2.044954 
1.463060 -0.306457 2.044338 
1.474581 -0.306953 2.044290 
1.486155 -0.300995 2.044857 
1.493346 -0.306856 2.046252 
1.506333 -0.301987 2.044758 
1.591279 -0.303969 2.044530 
-0.046748 -0.290044 2.045680 
0.012609 -0.292025 2.045446 
0.041668 -0.290036 2.045613 
0.065482 -0.291027 2.045501 
0.073119 -0.299965 2.044647 
0.084696 -0.298971 2.044733 
0.107191 -0.293010 2.045283 
0.115962 -0.292513 2.045324 
0.125083 -0.294002 2.045177 
0.134353 -0.296484 2.044935 
0.694597 -0.297963 2.044711 
0.703729 -0.295481 2.044951 
0.715581 -0.295482 2.044956 
0.724522 -0.294986 2.045007 
0.733242 -0.296476 2.044870 
0.745377 -0.293994 2.045112 
0.756855 -0.296974 2.044835 
0.765349 -0.299954 2.044556 
0.933357 -0.299470 2.044713 
0.945423 -0.297982 2.044863 
0.955314 -0.293017 2.045343 
1.335200 -0.297020 2.045216 
1.393410 -0.298015 2.045138 
1.401376 -0.293050 2.045613 
1.418602 -0.294043 2.045521 
1.425778 -0.291064 2.045805 
1.445547 -0.293050 2.045617 
1.603896 -0.291058 2.045756 
-0.125171 -0.282743 2.043457 
-0.117218 -0.283193 2.044402 
-0.104331 -0.283487 2.043377 
-0.096226 -0.280754 2.043623 
-0.083759 -0.283236 2.043378 
-0.073747 -0.288061 2.045889 
-0.064386 -0.281956 2.042491 
-0.055763 -0.285173 2.044164 
-0.041105 -0.289051 2.045770 
-0.035697 -0.287064 2.045955 
-0.026572 -0.283846 2.044265 
-0.019635 -0.280111 2.046603 
-0.001874 -0.280109 2.046589 
0.005608 -0.286704 2.042982 
0.017199 -0.286066 2.046009 
0.024582 -0.283510 2.044261 
0.034828 -0.285211 2.043097 
0.044383 -0.283601 2.042248 
0.055822 -0.281852 2.044390 
0.088739 -0.289039 2.045674 
0.093926 -0.285066 2.046047 
0.100032 -0.286059 2.045949 
0.965128 -0.283842 2.044233 
0.974761 -0.285074 2.046112 
1.334377 -0.284110 2.046444 
1.345766 -0.284393 2.040491 
1.399245 -0.283402 2.040599 
1.403472 -0.287375 2.040232 
1.413590 -0.285106 2.046371 
1.423306 -0.282408 2.040695 
1.437552 -0.284006 2.043513 
1.456167 -0.289078 2.045995 
-0.165480 -0.272695 2.043438 
-0.157590 -0.272814 2.044417 
-0.145317 -0.274302 2.044266 
-0.135587 -0.277281 2.043978 
-0.090986 -0.278270 2.043851 
-0.016684 -0.275330 2.043071 
-0.006729 -0.275660 2.043031 
0.051071 -0.277402 2.040828 
0.974230 -0.273433 2.041232 
0.986059 -0.274040 2.044174 
0.995712 -0.271173 2.047449 
1.000954 -0.273794 2.044214 
1.023953 -0.276775 2.043949 
1.033008 -0.272261 2.045381 
1.327941 -0.270206 2.047765 
1.333658 -0.275358 2.043305 
1.342995 -0.276445 2.041224 
1.417189 -0.275951 2.041292 
1.430943 -0.278435 2.041064 
1.618910 -0.273321 2.044457 
-0.174956 -0.264372 2.045215 
-0.152842 -0.268840 2.044782 
0.995938 -0.269461 2.041616 
1.008186 -0.268332 2.044732 
1.014611 -0.266346 2.044921 
1.020685 -0.265850 2.044975 
1.038289 -0.266485 2.041927 
1.271179 -0.262533 2.042472 
1.307575 -0.260908 2.045641 
1.314907 -0.265130 2.045252 
1.324873 -0.267411 2.044043 
-0.216907 -0.253586 2.043247 
-0.183946 -0.254802 2.049133 
1.047013 -0.255919 2.045924 
1.053627 -0.253437 2.046162 
1.225658 -0.257289 2.048938 
1.235169 -0.252415 2.047398 
1.265512 -0.253704 2.046294 
1.277280 -0.257053 2.046989 
1.286305 -0.253954 2.046282 
1.296855 -0.252419 2.047435 
1.303283 -0.256438 2.046056 
-0.225452 -0.245639 2.043988 
-0.214840 -0.248108 2.047776 
-0.208747 -0.241664 2.044342 
-0.197058 -0.240669 2.044424 
-0.188912 -0.247623 2.043776 
1.063541 -0.245868 2.045870 
1.074855 -0.240659 2.044341 
1.080603 -0.241653 2.044255 
1.163461 -0.246360 2.049935 
1.175439 -0.246361 2.049943 
1.185668 -0.241664 2.044339 
1.214011 -0.243895 2.046169 
1.224335 -0.248862 2.045715 
1.241292 -0.245642 2.044013 
1.255737 -0.247134 2.043885 
1.293720 -0.249620 2.043678 
-0.244205 -0.234217 2.045055 
-0.233390 -0.239679 2.044543 
-0.204307 -0.236696 2.044797 
1.087149 -0.239667 2.044443 
1.094519 -0.234701 2.044908 
1.104109 -0.232715 2.045099 
1.127511 -0.235201 2.044889 
1.136111 -0.236692 2.044759 
1.142421 -0.235699 2.044856 
1.155649 -0.231727 2.045233 
1.163178 -0.236695 2.044780 
1.174746 -0.238186 2.044652 
1.196886 -0.234711 2.044990 
1.204785 -0.238188 2.044675 
1.249326 -0.239682 2.044568 
-0.255063 -0.228754 2.045567 
1.114272 -0.228742 2.045474 
1.120313 -0.228743 2.045479 
1.150211 -0.229739 2.045412 
-0.320785 -0.213123 2.040928 
-0.285383 -0.210874 2.047239 
-0.274224 -0.216834 2.046681 
-0.264452 -0.218453 2.043466 
-0.319363 -0.200943 2.048177 
-0.293888 -0.203552 2.044842 
-0.283881 -0.205667 2.041570 
-0.273895 -0.208150 2.041341 
-0.322934 -0.190267 2.042977 
-0.302781 -0.195234 2.042518 
-0.319992 -0.181323 2.043776 
-0.306629 -0.185047 2.049637 
1.522627 -0.184079 2.045721 
-0.315241 -0.177347 2.044129 
1.508250 -0.161173 2.040123 
1.512756 -0.156738 2.043572 
1.446428 -0.142544 2.042365 
1.474582 -0.147573 2.044852 
1.491883 -0.146517 2.041099 
1.515181 -0.143412 2.040647 
1.635414 -0.142678 2.044428 
1.455898 -0.134635 2.042446 
1.464417 -0.136892 2.042149 
1.483631 -0.133153 2.048527 
1.513219 -0.134522 2.047757 
1.522134 -0.137245 2.044077 
1.533631 -0.132679 2.040608 
1.546693 -0.136043 2.043516 
1.620682 -0.131907 2.045187 
1.377116 -0.127108 2.044643 
1.444411 -0.121559 2.046569 
1.463018 -0.122911 2.049401 
1.474487 -0.129944 2.048866 
1.501592 -0.127504 2.048297 
1.524228 -0.125465 2.045586 
1.538061 -0.128254 2.047376 
1.549186 -0.123215 2.040588 
1.554210 -0.125289 2.047085 
1.589825 -0.129644 2.046042 
1.633918 -0.129707 2.044931 
1.380162 -0.114233 2.045080 
1.424723 -0.118287 2.043846 
1.565981 -0.115661 2.047142 
1.354731 -0.106441 2.045996 
1.410597 -0.106454 2.044655 
1.462016 -0.109891 2.043268 
1.547281 -0.109273 2.041178 
1.552883 -0.106759 2.047789 
1.565200 -0.103631 2.044273 
1.585037 -0.100841 2.047200 
1.343519 -0.095014 2.042345 
1.395408 -0.092700 2.045564 
1.545931 -0.096290 2.041715 
1.580497 -0.094187 2.040922 
1.591222 -0.099276 2.047101 
1.328381 -0.084614 2.040961 
1.369988 -0.084907 2.046484 
1.383704 -0.084681 2.046163 
1.547035 -0.087118 2.042043 
1.567368 -0.085294 2.048203 
1.314863 -0.072731 2.048281 
1.321911 -0.073105 2.048099 
1.373743 -0.079529 2.046606 
1.560934 -0.075786 2.042130 
1.547842 -0.066884 2.042807 
1.296688 -0.046640 2.043330 
1.279276 -0.033590 2.044301 
1.263823 -0.017843 2.045338 
1.244498 -0.000931 2.043376 
1.252182 -0.008811 2.045999 
1.225147 0.004384 2.044069 
1.233799 0.000624 2.046837 
1.205082 0.029294 2.042547 
-0.264503 0.037181 2.045694 
-0.224239 0.037783 2.041709 
1.184500 0.031474 2.043137 
1.197867 0.030661 2.042781 
1.203585 0.032178 2.048896 
-0.227544 0.042187 2.045961 
-0.217731 0.044415 2.044856 
1.172737 0.041504 2.043871 
1.188618 0.047968 2.049922 
-0.253678 0.054788 2.046465 
-0.236396 0.056344 2.046084 
1.106876 0.057760 2.040074 
1.137698 0.053472 2.045244 
1.145829 0.056219 2.045177 
1.161540 0.050577 2.044548 
1.180374 0.051264 2.044131 
-0.244476 0.060152 2.046537 
-0.209542 0.067329 2.046019 
1.019689 0.069060 2.048712 
1.084713 0.068530 2.045156 
1.095578 0.067826 2.046888 
1.105834 0.066229 2.046575 
1.112572 0.065326 2.043333 
1.123647 0.062288 2.045976 
1.148889 0.062543 2.045391 
0.946504 0.079616 2.044880 
0.995107 0.074918 2.043526 
1.003437 0.077177 2.046453 
1.013962 0.074596 2.046088 
1.025590 0.076399 2.045900 
1.036282 0.073581 2.045513 
1.045615 0.073665 2.045304 
1.075092 0.071025 2.044489 
1.086129 0.074037 2.041349 
1.093103 0.072649 2.041117 
0.939717 0.081022 2.045105 
0.953945 0.083814 2.044912 
0.966261 0.083914 2.044631 
0.974962 0.085202 2.044491 
0.986319 0.080677 2.047012 
0.994627 0.082934 2.049925 
1.008260 0.080134 2.043471 
1.048173 0.087758 2.042905 
1.053785 0.082714 2.048543 
1.064131 0.080623 2.045195 
-0.201072 0.094303 2.044571 
0.896344 0.096276 2.040899 
0.903824 0.097956 2.042792 
0.927725 0.094562 2.043060 
1.053195 0.090226 2.042907 
0.879009 0.108829 2.041944 
0.887259 0.103523 2.041481 
0.891999 0.106969 2.047464 
0.905766 0.103167 2.046962 
0.914552 0.103961 2.043831 
-0.193027 0.118212 2.045830 
0.858393 0.115033 2.048628 
0.867318 0.117854 2.046600 
0.875911 0.116609 2.048302 
0.884538 0.110329 2.047799 
-0.186635 0.126854 2.043377 
0.847516 0.127161 2.046542 
0.855613 0.121844 2.043153 
0.862214 0.120422 2.042928 
-0.179921 0.139051 2.043969 
-0.173600 0.147684 2.044342 
0.827143 0.148515 2.045178 
0.835180 0.143190 2.044719 
-0.167253 0.156821 2.047514 
0.815339 0.156021 2.045835 
-0.163094 0.162911 2.044094 
-0.153095 0.162634 2.044724 
-0.144873 0.162870 2.044511 
-0.136354 0.166913 2.044533 
-0.128140 0.167403 2.041579 
0.777868 0.169285 2.044518 
0.787300 0.167613 2.044212 
0.798563 0.161069 2.040730 
-0.123990 0.174157 2.045574 
0.769648 0.175604 2.042187 
0.796857 0.173511 2.047159 
-0.116054 0.184112 2.045070 
-0.104903 0.188644 2.045049 
-0.094020 0.188613 2.047491 
0.753033 0.189229 2.043308 
0.762115 0.185675 2.046690 
-0.110165 0.191195 2.045354 
-0.097477 0.192001 2.044148 
-0.086382 0.196359 2.045943 
0.736235 0.195779 2.046875 
0.745692 0.193606 2.046545 
0.752394 0.191183 2.049091 
-0.082420 0.203775 2.042674 
-0.075152 0.204425 2.046146 
-0.065962 0.208275 2.047949 
0.705637 0.209157 2.045485 
0.717105 0.209181 2.045220 
0.725404 0.201863 2.044632 
-0.071199 0.212849 2.042953 
-0.062297 0.210624 2.044377 
-0.054973 0.213803 2.045285 
-0.046842 0.215039 2.045144 
-0.035988 0.218034 2.042331 
0.004533 0.215633 2.041081 
0.697392 0.216482 2.043284 
0.706546 0.214785 2.042974 
-0.035798 0.223086 2.048054 
-0.025895 0.225323 2.046128 
-0.000792 0.222711 2.044386 
0.004628 0.221685 2.046887 
0.010034 0.225702 2.044288 
0.024457 0.225151 2.044769 
0.033464 0.226970 2.044643 
0.044278 0.226937 2.042549 
0.648335 0.227190 2.042244 
0.659546 0.227692 2.044783 
0.686463 0.223562 2.043925 
-0.022233 0.230360 2.042754 
-0.014082 0.234620 2.045500 
-0.006053 0.233326 2.045200 
0.015452 0.232742 2.044589 
0.020814 0.231211 2.041649 
0.037010 0.230652 2.041179 
0.047844 0.232630 2.046418 
0.055879 0.235372 2.043676 
0.066698 0.235086 2.043375 
0.622467 0.237961 2.048973 
0.635534 0.238131 2.046838 
0.643766 0.232824 2.045437 
0.652787 0.231116 2.045130 
0.666457 0.232598 2.044894 
0.674946 0.232606 2.044696 
0.077236 0.244855 2.043712 
0.085192 0.248093 2.041023 
0.092443 0.246728 2.042531 
0.101382 0.247534 2.040559 
0.569478 0.246302 2.045178 
0.575761 0.243843 2.044891 
0.584097 0.244089 2.044709 
0.608397 0.247282 2.047065 
0.614917 0.244338 2.049493 
0.624480 0.243522 2.045564 
0.085176 0.250103 2.046516 
0.095864 0.252073 2.046358 
0.104725 0.254216 2.044470 
0.114484 0.256271 2.043451 
0.125220 0.256733 2.043202 
0.135878 0.258701 2.043050 
0.146938 0.254653 2.045190 
0.154855 0.257382 2.045154 
0.163083 0.255602 2.044832 
0.173910 0.255818 2.047253 
0.184764 0.255535 2.046961 
0.195589 0.256003 2.049399 
0.203564 0.257729 2.049299 
0.217075 0.257939 2.046281 
0.223824 0.253843 2.044961 
0.233344 0.257894 2.043178 
0.244339 0.257117 2.045545 
0.252387 0.258093 2.045400 
0.268641 0.258550 2.042328 
0.279416 0.259520 2.042117 
0.284937 0.259009 2.041947 
0.293743 0.254759 2.044165 
0.301731 0.256483 2.046770 
0.555553 0.256142 2.040613 
0.561688 0.254172 2.043078 
0.589295 0.255142 2.045213 
0.597292 0.256366 2.045095 
0.612194 0.253170 2.044564 
0.143822 0.260426 2.040277 
0.195045 0.261503 2.044377 
0.206763 0.261716 2.045879 
0.214117 0.260695 2.049208 
0.233130 0.260390 2.048711 
0.257289 0.262567 2.045547 
0.264299 0.264541 2.046385 
0.275386 0.262850 2.046007 
0.284590 0.261997 2.047521 
0.304230 0.264104 2.043574 
0.313816 0.266898 2.044400 
0.324568 0.267616 2.041492 
0.458947 0.266600 2.043540 
0.464367 0.267086 2.046137 
0.496660 0.269995 2.042838 
0.506063 0.269159 2.044367 
0.516313 0.268734 2.047703 
0.525256 0.266014 2.044628 
0.533933 0.264526 2.044335 
0.544802 0.265253 2.044120 
0.554274 0.261062 2.046373 
0.324083 0.271096 2.047084 
0.333153 0.276451 2.043610 
0.341723 0.279240 2.041787 
0.366408 0.277931 2.043776 
0.374434 0.278654 2.043622 
0.385194 0.279121 2.040709 
0.396497 0.277111 2.042992 
0.406031 0.270407 2.045042 
0.416274 0.273848 2.044998 
0.423708 0.277542 2.045037 
0.439563 0.279977 2.044799 
0.445131 0.279470 2.044635 
0.454295 0.275252 2.046854 
0.468164 0.274484 2.046476 
0.486952 0.276175 2.046127 
0.493276 0.272712 2.045774 
0.502105 0.270480 2.048138 
0.514997 0.273661 2.042618 
0.335789 0.282734 2.047485 
0.344657 0.283533 2.045536 
0.354678 0.282924 2.044366 
0.378863 0.284093 2.043839 
0.387148 0.283326 2.043592 
0.390224 0.281584 2.046088 
0.428440 0.280992 2.045128 
0.433366 0.283451 2.045155 
0.473672 0.286068 2.047018 
0.483122 0.280868 2.049177 
1.352705 -0.410927 2.056744 
1.345299 -0.401327 2.052139 
1.350890 -0.401664 2.054915 
1.363599 -0.404976 2.057378 
1.327392 -0.390414 2.053265 
1.346017 -0.393233 2.055801 
1.358159 -0.397359 2.052552 
1.365874 -0.392399 2.053066 
1.376258 -0.395058 2.058432 
1.314747 -0.386941 2.053622 
1.322981 -0.387437 2.053572 
1.333699 -0.384584 2.057653 
1.344303 -0.383809 2.056790 
1.384458 -0.389108 2.059065 
1.309658 -0.378508 2.054493 
1.379143 -0.374541 2.054916 
1.385668 -0.372557 2.055121 
0.354434 -0.360615 2.056052 
0.389069 -0.360915 2.050236 
0.394854 -0.361757 2.053038 
0.435196 -0.361756 2.053034 
0.440949 -0.361606 2.055938 
0.267274 -0.352831 2.053983 
0.275091 -0.353872 2.052910 
0.284744 -0.353971 2.050962 
0.293076 -0.350497 2.051309 
0.319182 -0.351836 2.054066 
0.325277 -0.355805 2.053662 
0.333678 -0.352332 2.054012 
0.345464 -0.355556 2.053680 
0.354436 -0.359923 2.050343 
0.362914 -0.357540 2.053473 
0.374292 -0.354563 2.053775 
0.385093 -0.358730 2.054313 
0.403345 -0.358036 2.053416 
0.414827 -0.356299 2.053594 
0.426415 -0.357291 2.053492 
0.444716 -0.357506 2.052501 
0.452329 -0.352826 2.053942 
0.466794 -0.351833 2.054045 
1.399953 -0.352715 2.057176 
1.474657 -0.352715 2.057174 
1.553528 -0.351224 2.057307 
0.219654 -0.341770 2.058040 
0.248765 -0.342761 2.057927 
0.261069 -0.348861 2.054388 
0.278271 -0.347720 2.057405 
0.286813 -0.346232 2.057556 
0.295644 -0.347719 2.057400 
0.304247 -0.346379 2.054626 
0.313024 -0.347371 2.054521 
0.458035 -0.347368 2.054499 
0.466758 -0.348856 2.054348 
0.475453 -0.347864 2.054446 
0.485116 -0.343846 2.055827 
0.495767 -0.347616 2.054471 
0.504494 -0.344740 2.057680 
0.513218 -0.344143 2.054827 
0.523894 -0.343185 2.055898 
0.536487 -0.343399 2.054904 
0.545261 -0.341065 2.052227 
0.568576 -0.340073 2.052330 
1.317662 -0.343785 2.058087 
1.386144 -0.344087 2.052291 
1.470284 -0.349739 2.057483 
1.484170 -0.344778 2.057995 
1.537880 -0.341454 2.055434 
1.544660 -0.343553 2.056179 
1.563641 -0.342444 2.055318 
0.205328 -0.335352 2.054813 
0.215106 -0.336012 2.054740 
0.227183 -0.332344 2.059012 
0.236277 -0.334971 2.055815 
0.244055 -0.335019 2.054830 
0.254012 -0.337450 2.055552 
0.481209 -0.336103 2.052724 
0.504529 -0.339080 2.052425 
0.527835 -0.339080 2.052426 
0.545365 -0.337795 2.058400 
0.554172 -0.335461 2.055719 
0.564825 -0.336901 2.056546 
0.574518 -0.337446 2.055518 
0.583354 -0.335461 2.055720 
1.322339 -0.331184 2.053577 
1.414349 -0.332873 2.059232 
1.425491 -0.333865 2.059129 
1.435283 -0.331385 2.059386 
1.495143 -0.333865 2.059124 
1.505306 -0.330540 2.056559 
1.515778 -0.333368 2.059171 
1.526361 -0.335252 2.056068 
1.533525 -0.338477 2.055737 
1.553465 -0.339122 2.052769 
1.571129 -0.333166 2.053362 
0.194332 -0.326042 2.056741 
0.200641 -0.329865 2.059278 
0.226813 -0.328667 2.053531 
0.595587 -0.324051 2.056886 
0.606164 -0.327310 2.057534 
0.613178 -0.324051 2.056889 
0.622067 -0.322915 2.059949 
0.636765 -0.321715 2.054191 
0.645458 -0.323204 2.054043 
0.798049 -0.320233 2.054399 
0.806229 -0.324555 2.056902 
0.815438 -0.321227 2.054307 
0.821126 -0.322219 2.054211 
0.845810 -0.326327 2.057714 
0.854253 -0.322125 2.056192 
0.867981 -0.321230 2.054335 
1.403081 -0.324735 2.054243 
1.412006 -0.324239 2.054294 
1.422753 -0.326921 2.059848 
1.446220 -0.326076 2.057018 
1.455512 -0.324835 2.057146 
1.467905 -0.329897 2.059539 
1.472645 -0.325579 2.057066 
1.484777 -0.324238 2.054291 
1.494009 -0.323246 2.054390 
1.506255 -0.328556 2.056760 
1.515979 -0.326222 2.054085 
1.521350 -0.327214 2.053983 
1.580567 -0.326917 2.059818 
0.174709 -0.311301 2.055301 
0.184226 -0.316263 2.054797 
0.616375 -0.319233 2.054435 
0.625442 -0.315263 2.054837 
0.654788 -0.316257 2.054744 
0.666835 -0.312784 2.055097 
0.769182 -0.317254 2.054686 
0.793608 -0.310308 2.055395 
0.828065 -0.315273 2.054913 
0.836849 -0.315273 2.054917 
0.862494 -0.319245 2.054531 
0.874350 -0.318253 2.054637 
0.883843 -0.314284 2.055042 
0.895535 -0.314285 2.055048 
0.904115 -0.315278 2.054954 
0.913471 -0.312301 2.055258 
1.442363 -0.314811 2.055245 
1.468003 -0.316299 2.055094 
1.481089 -0.313322 2.055393 
1.505983 -0.310344 2.055690 
1.584137 -0.319272 2.054760 
0.076056 -0.300674 2.050498 
0.135085 -0.302372 2.056219 
0.143766 -0.300669 2.050457 
0.154056 -0.304119 2.054060 
0.165152 -0.305985 2.052879 
0.173688 -0.303645 2.050148 
0.664575 -0.303638 2.050086 
0.676055 -0.308318 2.055549 
0.685447 -0.302364 2.056152 
0.713821 -0.304113 2.054009 
0.723771 -0.303358 2.056065 
0.735357 -0.305343 2.055870 
0.743457 -0.303122 2.054120 
0.758950 -0.305345 2.055879 
0.764338 -0.309314 2.055482 
0.776370 -0.307330 2.055687 
0.785818 -0.302510 2.053212 
0.917577 -0.305639 2.050021 
0.925532 -0.305449 2.053982 
0.933760 -0.303228 2.052235 
0.941867 -0.302379 2.056273 
1.413469 -0.306664 2.050189 
1.423762 -0.303542 2.053439 
1.437551 -0.305527 2.053238 
1.450394 -0.302693 2.050581 
1.477516 -0.307657 2.050092 
1.491123 -0.303685 2.050480 
1.506567 -0.302196 2.050623 
-0.094089 -0.290479 2.057550 
-0.073104 -0.291610 2.054456 
-0.047003 -0.290475 2.057522 
0.007156 -0.295078 2.054056 
0.015607 -0.293341 2.054226 
0.065476 -0.292096 2.054320 
0.074618 -0.293940 2.057100 
0.083661 -0.294576 2.054059 
0.092789 -0.296420 2.056841 
0.107011 -0.292729 2.051255 
0.116745 -0.292304 2.053272 
0.124742 -0.293084 2.054181 
0.134183 -0.296202 2.050899 
0.143283 -0.298401 2.056614 
0.694884 -0.296054 2.053818 
0.703606 -0.297791 2.053646 
0.718177 -0.299669 2.050494 
0.724309 -0.297684 2.050691 
0.730175 -0.298536 2.053580 
0.748105 -0.296692 2.050799 
0.755915 -0.297592 2.052694 
0.946622 -0.297936 2.052770 
0.955534 -0.293092 2.054246 
0.964482 -0.292596 2.054299 
0.973654 -0.290752 2.051515 
1.330702 -0.294606 2.054306 
1.405570 -0.297729 2.051064 
1.411869 -0.296736 2.051162 
1.435393 -0.297443 2.056996 
1.446285 -0.298722 2.050970 
1.487995 -0.297729 2.051065 
1.601072 -0.297581 2.053987 
-0.145311 -0.282636 2.056384 
-0.133589 -0.285659 2.055082 
-0.124334 -0.287148 2.054933 
-0.115989 -0.285410 2.055100 
-0.104341 -0.284913 2.055138 
-0.095964 -0.282818 2.052361 
-0.085860 -0.287889 2.054830 
-0.063305 -0.283917 2.055211 
-0.053639 -0.287142 2.054884 
-0.044217 -0.285368 2.054060 
-0.031476 -0.281185 2.055462 
-0.025323 -0.282176 2.055357 
-0.015695 -0.285402 2.055032 
-0.003370 -0.287634 2.054801 
0.025312 -0.283662 2.055178 
0.034298 -0.284158 2.055126 
0.043845 -0.287383 2.054800 
0.055474 -0.286389 2.054890 
0.088181 -0.286774 2.051849 
0.093559 -0.283795 2.052137 
0.102060 -0.287580 2.055737 
0.112049 -0.288479 2.057629 
0.974992 -0.285509 2.057989 
0.981352 -0.283168 2.055249 
1.436363 -0.287802 2.052040 
1.611945 -0.288506 2.057854 
-0.163963 -0.272758 2.056381 
-0.155824 -0.273465 2.055312 
-0.038117 -0.278207 2.055759 
0.988862 -0.276220 2.055939 
0.994911 -0.275723 2.055987 
1.004634 -0.272250 2.056341 
1.015687 -0.271709 2.057403 
1.024694 -0.275229 2.056055 
1.037305 -0.272612 2.059325 
1.297765 -0.272767 2.056462 
1.333872 -0.271280 2.056623 
1.616070 -0.279854 2.052771 
-0.174283 -0.268043 2.056855 
1.020933 -0.265936 2.053974 
1.034500 -0.267501 2.055832 
1.259654 -0.262976 2.054416 
1.292525 -0.262482 2.054481 
1.305540 -0.267805 2.056959 
1.315754 -0.263972 2.054345 
1.326118 -0.267944 2.053960 
-0.186164 -0.258006 2.054848 
1.047020 -0.257003 2.054866 
1.054016 -0.253033 2.055259 
1.227994 -0.251061 2.055565 
1.235779 -0.254536 2.055229 
1.255791 -0.257019 2.054997 
1.267709 -0.257020 2.055003 
1.276467 -0.257517 2.054959 
1.285229 -0.258014 2.054915 
-0.227391 -0.240405 2.050532 
-0.213169 -0.248080 2.055836 
-0.205988 -0.242008 2.053394 
-0.196292 -0.244241 2.053168 
1.066327 -0.243856 2.054140 
1.074864 -0.242114 2.056341 
1.083325 -0.240218 2.054508 
1.092901 -0.242115 2.056354 
1.168369 -0.243865 2.054215 
1.174825 -0.249072 2.055727 
1.184659 -0.245979 2.053009 
1.194992 -0.242123 2.056420 
1.204149 -0.241265 2.053480 
1.216338 -0.243869 2.054245 
1.222680 -0.249075 2.055756 
1.248307 -0.243750 2.053265 
1.256183 -0.243961 2.052239 
-0.248704 -0.230476 2.051490 
-0.236645 -0.230475 2.051482 
-0.222031 -0.239146 2.056715 
1.075912 -0.237414 2.050720 
1.087422 -0.239402 2.050539 
1.096722 -0.238774 2.053644 
1.104753 -0.235012 2.052997 
1.115619 -0.236161 2.056952 
1.124062 -0.230711 2.053425 
1.134410 -0.232951 2.051188 
1.144037 -0.231331 2.054398 
1.157163 -0.234355 2.053103 
1.196256 -0.237425 2.050807 
1.204955 -0.238783 2.053719 
-0.275893 -0.221540 2.052356 
-0.265886 -0.224636 2.055110 
-0.254387 -0.225999 2.055989 
-0.243280 -0.223019 2.056273 
-0.232231 -0.226240 2.057984 
1.114277 -0.229473 2.051504 
1.132976 -0.228220 2.057740 
1.140180 -0.224249 2.058133 
1.150661 -0.229345 2.054592 
1.163190 -0.228222 2.057760 
-0.285561 -0.211481 2.056390 
-0.276921 -0.219294 2.058689 
-0.294934 -0.201679 2.054256 
-0.320796 -0.197709 2.054648 
-0.304536 -0.191749 2.055206 
