ply
format ascii 1.0
comment PCL generated
element vertex 1458
property float x
property float y
property float z
element camera 0
property float view_px
property float view_py
property float view_pz
property float x_axisx
property float x_axisy
property float x_axisz
property float y_axisx
property float y_axisy
property float y_axisz
property float z_axisx
property float z_axisy
property float z_axisz
property float focal
property float scalex
property float scaley
property float centerx
property float centery
property int viewportx
property int viewporty
property float k1
property float k2
end_header
0.94168043 0.11362576 1.8577255
-0.42352286 -0.013276815 1.8871641
0.96725291 0.11089277 1.8506838
0.95808989 0.11309385 1.8492934
0.94960862 0.1093049 1.8509934
0.93742549 0.10921645 1.8513443
0.92937821 0.11353731 1.8462836
0.9161588 0.10881972 1.8460143
0.90673661 0.10948372 1.8463883
0.87151539 0.10631394 1.8469847
-0.4051984 -0.0075824261 1.8725238
-0.41709954 -0.0096666813 1.8785646
0.92825419 0.10890555 1.8397567
0.89411443 0.11036897 1.8409908
0.87651932 0.10878563 1.8412879
0.86889517 0.10507512 1.8409816
0.85930872 0.10622859 1.8414316
-0.39975289 -0.0091028214 1.8662063
0.89605063 0.10550857 1.834325
0.87748641 0.10618997 1.8349819
0.86782283 0.099944353 1.8343573
0.85604692 0.098884583 1.8345537
0.83838052 0.097294569 1.8348469
-0.36100811 -0.0020771027 1.8540033
-0.37301734 -0.0046699047 1.8540628
-0.38446522 -0.0041909218 1.8575054
-0.39223525 -0.009761095 1.855986
0.80695713 0.099517107 1.8242915
0.76502633 0.09776473 1.8193802
0.74705619 0.097155571 1.8198271
0.72386754 0.094060421 1.8200462
0.71766335 0.094510317 1.8203025
-0.3287034 0.0013449192 1.841519
-0.34628206 -0.00024247169 1.847833
-0.35301006 -0.0058879852 1.8472303
-0.36172077 -0.0059132576 1.8445969
-0.37396249 -0.0097894669 1.847422
-0.38279101 -0.010584116 1.8476309
-0.39190403 -0.012916327 1.8476174
0.78717989 0.095222712 1.8183192
0.77609807 0.092209339 1.8181875
0.74284005 0.091736078 1.8191159
0.73727822 0.090227842 1.81905
0.71337575 0.089084387 1.8195924
-0.32334065 -0.0011909008 1.8350216
-0.33571973 -0.0063421726 1.8405997
-0.34161052 -0.0068724155 1.8407398
-0.37105498 -0.009522438 1.8414392
0.42271468 0.065965652 1.8071806
0.38137701 0.061237574 1.8077555
0.31917903 0.05463171 1.8087369
0.30973548 0.057813644 1.8095685
-0.21741603 0.0083532333 1.8206831
-0.22319983 0.0088405609 1.8209842
-0.25315413 0.0021128654 1.8210459
-0.26439106 0.0051279068 1.82787
-0.27382687 -0.00025701523 1.8273726
-0.28246465 0.000477314 1.8278201
-0.29094249 0.0022342205 1.8284243
-0.30206457 -0.00094890594 1.8263696
-0.31252763 -0.0062601566 1.827896
-0.31842664 -0.0067911148 1.8280369
0.24780697 0.048213482 1.8041847
0.22680832 0.048339605 1.8049306
-0.10513608 0.021493435 1.806726
-0.11715606 0.01637435 1.8122423
-0.12339827 0.010772705 1.8115579
-0.13172635 0.01808691 1.8130813
-0.15238404 0.016227722 1.8135669
-0.15877664 0.0096046925 1.8127214
-0.17356578 0.0082736015 1.813071
0.13778824 0.038317204 1.8004917
0.12570962 0.04126215 1.8014199
0.11987102 0.038720608 1.8012054
0.016056705 0.028873205 1.803372
-0.010581251 0.028995752 1.8043898
-0.081606224 0.021595001 1.8058422
-0.093796015 0.013442516 1.8049434
0.99930793 0.10375977 2.9003336
-0.17394958 -0.0026340485 2.6934454
0.56319654 0.068766117 2.6599913
0.76356316 0.087882996 2.5721202
0.83728236 0.086462259 2.5600135
0.85458183 0.089038134 2.5475402
0.84551919 0.088726759 2.5476639
0.82540637 0.085398674 2.5543556
0.85673851 0.091254234 2.5411928
0.8451044 0.089703083 2.5415573
0.14603865 0.026281595 2.5573545
0.85658336 0.091500521 2.5322518
0.84504795 0.089705944 2.532655
0.83488697 0.086943865 2.5322275
0.13987924 0.026746035 2.5454004
0.87174308 0.091617823 2.5172706
0.86544573 0.092059374 2.5172505
0.85660237 0.091260672 2.5204268
0.84615254 0.089311123 2.5218318
0.83705866 0.08647418 2.5243676
0.88431406 0.090738058 2.511369
0.87348831 0.094805002 2.5107963
0.8646335 0.094008207 2.511004
0.85616076 0.092237473 2.5113683
0.84881794 0.087543249 2.5122023
0.89606398 0.091806412 2.499208
0.88703454 0.091492414 2.5052807
0.8733632 0.092448235 2.5032678
0.86401474 0.09026432 2.5017209
0.8558892 0.090203285 2.5037858
0.84483898 0.089716673 2.5000074
0.8346681 0.092329979 2.4996877
0.8280257 0.093748808 2.4995248
0.81455338 0.089007139 2.5004032
0.80587578 0.087722063 2.5006886
0.79857558 0.091092825 2.5061467
0.5756076 0.063972235 2.5066299
0.87452137 0.091892004 2.4904816
0.86567652 0.091093302 2.4936583
0.85509026 0.094677448 2.4931996
0.81138456 0.089231491 2.4944656
0.57554811 0.063975096 2.4977038
0.88843882 0.095169067 2.4809451
0.86587602 0.098174095 2.4866335
0.91319138 0.094382763 2.4689424
0.90181488 0.092345238 2.475296
0.89270043 0.099591017 2.4743166
0.55184287 0.060852051 2.477555
0.9372077 0.095541477 2.4625936
0.92368579 0.098362684 2.4563944
0.91947025 0.093945026 2.4629989
0.56529623 0.067616224 2.4675241
0.5543704 0.062602758 2.4653645
0.54498243 0.063771486 2.4682794
0.53200662 0.06714344 2.464963
0.52413195 0.061897516 2.4657753
0.92364317 0.098364115 2.4504602
0.55025983 0.066775084 2.4588804
0.12722933 0.022652626 2.4686432
0.11506434 0.024587631 2.4625008
0.92987418 0.09792757 2.4385796
0.92295855 0.099822998 2.4413764
0.51383185 0.066531897 2.4474168
0.50670248 0.057824373 2.4486365
0.49666741 0.061962366 2.4482007
0.48434129 0.062869549 2.4482126
0.41329834 0.054458857 2.4500489
0.12080948 0.030146122 2.4617186
0.10281861 0.0295403 2.4559784
0.097106397 0.021968842 2.4570093
-0.24763875 -0.0030081272 2.462254
1.5615897 0.15579915 2.4156425
1.5517527 0.15995502 2.4151363
0.51582628 0.057642698 2.4425969
0.50937039 0.059083462 2.4365213
0.49148959 0.057474136 2.4369223
0.48510191 0.058915615 2.4368112
0.44280174 0.058133125 2.4373684
0.08502461 0.022902966 2.4510119
0.072989807 0.022833586 2.4451489
1.5923841 0.15958953 2.403276
1.586144 0.15902257 2.4093237
1.5736823 0.15740085 2.4049904
1.5634476 0.15295243 2.4039822
1.5586375 0.15957189 2.4092126
1.5435179 0.15720558 2.4064801
0.94028348 0.10190511 2.420155
0.46318409 0.061989546 2.4307191
0.06106082 0.017732382 2.4399066
1.5908101 0.16146946 2.3970723
1.5710313 0.16069794 2.3971364
1.5682433 0.155406 2.3977163
1.557678 0.16050434 2.3971512
0.96549988 0.10015249 2.4082024
0.95642638 0.099839926 2.4083457
0.9427377 0.1007905 2.4103751
0.033994589 0.019340277 2.4279923
1.5764667 0.1531322 2.3859649
1.5546412 0.15520072 2.3857613
1.5204662 0.15615821 2.3857076
1.5162786 0.15275693 2.3860762
1.4982572 0.1501267 2.3863971
0.97385186 0.10192037 2.3989897
0.96286011 0.10596943 2.4016244
0.95423931 0.1046896 2.4018743
0.94561887 0.10340929 2.4021249
0.021963943 0.019777775 2.4191015
1.5940176 0.15673351 2.3795867
1.5840564 0.16087794 2.379168
1.5531168 0.15708542 2.3795843
1.5443174 0.15528822 2.3767898
1.5349475 0.15444231 2.3798869
1.5258427 0.15160823 2.3782034
1.516064 0.14972186 2.3764296
1.4862925 0.14805269 2.3747075
0.97541988 0.10509396 2.389715
0.01288088 0.017962933 2.40746
-0.01698054 0.009727478 2.4115911
1.5908878 0.16049528 2.3672256
1.5420487 0.15811682 2.3675535
1.5347211 0.15443277 2.3679342
1.5239435 0.15547895 2.3678646
1.5138932 0.1555829 2.3678875
1.5059121 0.15284824 2.3681853
1.4923975 0.14860749 2.3686562
1.4787563 0.14939094 2.3746009
1.4651898 0.14515042 2.3691201
1.453307 0.14811397 2.3688838
1.446365 0.14396071 2.3693333
1.4319776 0.14115357 2.3696918
1.422761 0.14200258 2.3716483
1.404109 0.13914967 2.3700588
1.3958995 0.13689852 2.3703372
1.0134155 0.10247517 2.3776493
1.0066259 0.10387778 2.3805611
0.99440813 0.10815454 2.3812487
0.98377198 0.10685921 2.3834922
0.0067811199 0.011876822 2.3992054
-0.011019301 0.019348621 2.3985901
1.6006284 0.15634155 2.3556089
1.5917838 0.15907168 2.3583789
1.5836722 0.15632558 2.3586464
1.5020179 0.15351129 2.3621712
1.4929852 0.15068364 2.3604946
1.4611274 0.15083933 2.3626223
1.4431534 0.14687133 2.3611224
1.4373784 0.14265323 2.363548
1.4234967 0.14392424 2.3635087
1.413505 0.13949633 2.3640032
1.4067575 0.13989758 2.3640079
1.3957174 0.14024997 2.3620632
1.3774576 0.13524961 2.3587065
1.3646489 0.14014602 2.3583376
1.3543756 0.13619685 2.3587971
1.0310535 0.10407329 2.3653741
1.023304 0.10740852 2.3651443
1.015013 0.10766721 2.3691816
1.0033947 0.11065245 2.371002
1.5777045 0.15933061 2.3434241
1.5574362 0.15951753 2.3494592
1.5437553 0.15526462 2.3469076
1.532207 0.15725255 2.3437986
1.5273337 0.15479755 2.344038
1.3821304 0.14273262 2.3520155
1.3730347 0.14191413 2.3521633
1.3603103 0.14177728 2.3522792
1.3573252 0.1364677 2.352798
1.0537156 0.10813475 2.3587496
1.0450855 0.10685396 2.3589818
1.0355227 0.10750556 2.3590419
1.0243614 0.11154175 2.3587995
1.5698373 0.16064429 2.3373647
1.5635214 0.1600759 2.3374407
1.5362622 0.15157366 2.3382959
1.5251589 0.15763164 2.3378386
1.3844597 0.14395595 2.3459449
1.3777707 0.14436221 2.345963
1.3526896 0.13857627 2.3466988
1.3423823 0.13966775 2.3437254
1.3340954 0.13766146 2.3439798
1.32441 0.13452053 2.3453436
1.316442 0.13531947 2.3413858
1.0920874 0.1136117 2.3498383
1.0836952 0.11588454 2.3457811
1.0747864 0.10903358 2.3465128
1.0654863 0.10919952 2.3525591
1.0551986 0.11129808 2.3524961
1.5395505 0.15591311 2.3259668
1.5346705 0.1534574 2.3261933
1.5207808 0.15422392 2.3262198
1.3133299 0.1350472 2.332536
1.112656 0.11346078 2.3337514
1.0915124 0.11860991 2.3395147
1.5492198 0.1517477 2.3202562
1.5244942 0.15355539 2.3202801
1.3080989 0.13307214 2.3238435
1.2948358 0.12885404 2.3243284
1.5392514 0.15590215 2.3080597
1.535067 0.15250111 2.3083372
1.2996744 0.1363523 2.3177421
1.2912694 0.13458753 2.3179748
1.2813197 0.13016343 2.3184338
1.2726235 0.12887669 2.3186352
1.2615871 0.13141727 2.3126357
1.2540489 0.12821841 2.3129687
1.244252 0.12884903 2.3130414
1.2383717 0.12277484 2.3135736
1.19014 0.11944222 2.3144393
1.1809528 0.11911964 2.3145835
1.1567777 0.12349701 2.3145692
1.133688 0.1204052 2.3210409
1.5252585 0.15666485 2.3021498
1.2309762 0.12816572 2.305352
1.2014172 0.12516904 2.305949
1.1943861 0.12285709 2.3052237
-0.31499651 -0.013998985 2.3390517
1.5529212 0.15513206 2.2900844
1.5323119 0.15580082 2.2872417
1.2034695 0.12872338 2.2957978
1.192683 0.125736 2.2961476
1.5311368 0.15721512 2.2782197
1.1829265 0.12637568 2.2903156
-0.33894381 -0.016132593 2.3156574
1.5233812 0.14946532 2.2727835
1.5150418 0.15174222 2.2697604
1.535031 0.15153289 2.2605922
1.5149149 0.15173864 2.2608094
1.5052835 0.15591264 2.2607024
-0.35148743 -0.020269871 2.2981839
1.5237764 0.15758777 2.2484941
1.5132227 0.15362406 2.2368898
1.51998 0.15323496 2.2248902
-0.38051298 -0.01679039 2.2508104
-0.38666299 -0.018346786 2.2450109
1.5251594 0.15473604 2.1949565
-0.39269218 -0.018878698 2.2332265
1.5230213 0.15757322 2.1889706
1.5388372 0.15396667 2.1768482
1.5289026 0.15542316 2.1789823
-0.40448633 -0.018915892 2.2155893
1.5239474 0.1556778 2.1472907
-0.4278734 -0.017959118 2.1744375
-0.43485829 -0.02362299 2.1686172
1.52759 0.15000534 2.093468
-0.45284298 -0.024185181 2.115474
-0.45824084 -0.021630764 2.0978656
-0.46589062 -0.029354334 2.0739448
-0.46571994 -0.028325558 2.0680385
-0.46559939 -0.027295828 2.0561905
1.3313886 0.13645697 2.011586
1.3187306 0.13632846 2.0089536
-0.46611884 -0.029350758 2.0471568
1.4218111 0.14057088 2.0003877
1.3919194 0.13687277 2.0010118
1.3406487 0.13679433 2.0024428
1.3289012 0.13523293 2.0026689
-0.46530434 -0.025237083 2.0384712
-0.50185978 -0.033567429 2.0389385
1.4471917 0.1509304 1.9884039
1.442364 0.1484797 1.9883846
1.4265709 0.14302635 1.9884893
1.424035 0.14682484 1.9947662
1.3736303 0.13523197 1.9954675
1.3432856 0.13250613 1.9901909
1.3310359 0.13845825 1.9929198
1.2921507 0.13294435 1.9916526
1.2844175 0.1352725 1.992026
1.4300762 0.14737916 1.9827304
1.4246036 0.14587879 1.9827904
1.4007912 0.14273286 1.9773319
1.26638 0.1336596 1.9805548
1.2669001 0.13270354 1.9745386
1.2289088 0.12223887 1.9628997
1.2190911 0.12841153 1.9636858
1.2184868 0.12937069 1.9578556
1.213032 0.12787676 1.9519544
1.1916149 0.12527561 1.9543109
1.1838866 0.12424302 1.9554275
1.2086618 0.12446475 1.9458426
1.2010851 0.12680697 1.9462731
1.1897398 0.12477779 1.9464142
1.1822011 0.12712359 1.9468424
1.1918265 0.12093902 1.9400644
1.1818079 0.12205625 1.9374878
-0.46671328 -0.029337406 1.9727784
1.1857615 0.12040377 1.9283056
1.1644802 0.12504339 1.9264245
1.158787 0.12402964 1.9235256
1.1523436 0.1244576 1.9237573
1.1356146 0.12093592 1.9238844
1.1312215 0.11751652 1.9236628
1.1203166 0.12056732 1.9242876
1.1651802 0.12360215 1.9173671
1.1597433 0.12210751 1.9144052
1.1375988 0.11708784 1.9174969
1.1281654 0.11724973 1.9148221
1.1213233 0.11259913 1.9175
1.1123879 0.11784291 1.9183073
-0.45485967 -0.027240992 1.9488214
1.1376255 0.1226449 1.9062307
1.0982198 0.11506629 1.9065566
1.0875002 0.1176405 1.8953044
-0.44783941 -0.020539761 1.9255822
1.0785791 0.11684275 1.8895512
1.0593463 0.11208797 1.8895559
1.0489428 0.10812759 1.8893914
-0.44224504 -0.021033764 1.9134755
-0.44959804 -0.028756857 1.9187368
1.049816 0.10619545 1.8831912
1.0277598 0.11329317 1.8728591
-0.43016717 -0.017914534 1.895668
-0.4373118 -0.024605513 1.8950496
-0.47905585 -0.030384064 1.901693
1.005402 0.10826755 1.8610259
-0.43144688 -0.024072409 1.8889736
-0.43756181 -0.025630713 1.8889819
0.97663748 0.10367346 1.8494062
0.94584942 0.10392666 1.8503633
-0.42541745 -0.022511005 1.8770927
0.96848506 0.10798502 1.8443254
0.95756441 0.10498619 1.8442336
0.95287585 0.10154581 1.8379569
0.93945861 0.10436487 1.8446906
0.91855669 0.10299301 1.8392
0.91278082 0.094913244 1.8382136
-0.41022196 -0.018615484 1.8681896
-0.41975418 -0.023004055 1.8708826
0.86266828 0.097467422 1.8311865
0.85044026 0.089812279 1.8333925
0.83464819 0.090916157 1.8280879
0.81619811 0.091271877 1.8286922
-0.40125898 -0.016789913 1.8562677
-0.41020912 -0.023138523 1.8546739
-0.42262325 -0.022238255 1.8532842
-0.40160617 -0.018325329 1.8471603
-0.41025999 -0.018096209 1.8475164
-0.42246369 -0.021210432 1.8474982
-0.44332775 -0.024096489 1.847834
-0.33066836 -0.010922194 1.833775
-0.34026638 -0.016321659 1.8332932
-0.35127312 -0.012527227 1.8372672
-0.36296389 -0.012820959 1.834702
-0.37234965 -0.016689301 1.8344512
-0.38137299 -0.018512011 1.8374728
-0.39290419 -0.018038273 1.8379812
-0.40137359 -0.016784191 1.838495
-0.40919754 -0.017321348 1.839694
-0.4227038 -0.022234678 1.8414172
-0.26284763 -0.0053112507 1.8202158
-0.27810797 -0.01021266 1.8200091
-0.29262528 -0.0095031261 1.8206832
-0.30711362 -0.0087914467 1.8213568
-0.31317416 -0.010344744 1.8213385
-0.32311592 -0.011913538 1.8234432
-0.33182994 -0.018076897 1.8267506
-0.34334511 -0.017097473 1.8273468
-0.35096636 -0.016101837 1.825817
-0.37292582 -0.019759655 1.8280512
-0.38198218 -0.021582842 1.8281057
-0.3988196 -0.023432493 1.8264706
0.46007928 0.06025672 1.8050537
0.41012585 0.052233219 1.8053579
0.40109479 0.051924467 1.8056008
0.38933814 0.04985857 1.8056483
-0.16528574 0.0019631386 1.8117127
-0.18271135 0.0044264793 1.8127894
-0.19178347 0.0015940666 1.8126727
-0.20056942 0.0018112659 1.8130476
-0.20992035 -0.0035662651 1.8125229
-0.22513995 -0.0084638596 1.8123045
-0.23351975 -0.0046823025 1.8132521
-0.24223115 -0.0039544106 1.8137094
-0.25129804 -0.0062823296 1.8136772
-0.2606279 -0.01064992 1.8133192
-0.27231821 -0.010699272 1.8197072
-0.28430876 -0.012786627 1.8198308
-0.31412593 -0.016472816 1.814435
-0.32566166 -0.015495062 1.8150436
-0.33782676 -0.018605947 1.8150026
0.14447005 0.025815248 1.7981584
0.11423793 0.03115797 1.8001432
0.084469274 0.028478861 1.8007784
-0.022691827 0.013794184 1.8023008
-0.087964267 0.011951447 1.8044708
-0.11218718 0.0017077923 1.8036841
-0.12998003 0.00111413 1.8042693
-0.14158186 0.0041019917 1.8052169
-0.25170395 -0.0093371868 1.8072455
-0.26055348 -0.0096271038 1.8045716
-0.29626986 -0.013847113 1.8022877
-0.30234286 -0.015401602 1.8022621
-0.30797064 -0.013892174 1.8027403
-0.37199447 -0.013606787 1.8053035
-0.31876096 -0.0078024864 1.7982806
1.0097836 0.094618559 2.9035826
0.99690318 0.095476151 2.9030995
0.97470367 0.089444637 2.9048226
0.98652673 0.090519428 2.8926425
0.98097187 0.089011192 2.8930709
0.56689399 0.053979874 2.6574066
0.92978454 0.086668015 2.6189506
0.7698403 0.070277452 2.5993001
0.79616034 0.073670864 2.5805736
0.76212621 0.074635267 2.586565
0.82288319 0.076081038 2.5739694
0.8173005 0.074570417 2.5742955
0.81131601 0.074037313 2.5684714
0.79945403 0.072964191 2.574723
0.8447057 0.083097458 2.5605855
0.8354674 0.080581903 2.5650897
0.82405698 0.080984116 2.5640998
0.81597704 0.077988386 2.5647159
0.86280161 0.083728552 2.5484352
0.85805261 0.080271006 2.5550549
0.8466903 0.08580184 2.554126
0.83491772 0.08449316 2.5514777
0.82442379 0.079770327 2.5494366
0.8181904 0.077357054 2.5538902
0.80529499 0.073506117 2.5566797
0.78011119 0.075272322 2.5565462
0.86946791 0.082317352 2.542681
0.8345834 0.085227251 2.5424333
0.82482773 0.078554153 2.5407112
0.81691843 0.075069666 2.5413897
0.81081074 0.075021505 2.544431
0.79923743 0.072977066 2.5389166
0.93342561 0.091109276 2.5287514
0.92956793 0.085720778 2.529706
0.87493682 0.083828449 2.530457
0.86786294 0.086213827 2.5330799
0.83269733 0.082038164 2.5370615
0.82468086 0.078801155 2.5317321
0.81595701 0.077512026 2.5320265
0.8081674 0.076472759 2.5342574
0.79430377 0.078081131 2.5350866
0.92692709 0.084485531 2.5180013
0.89384723 0.082516432 2.5186005
0.8867228 0.084899902 2.5182631
0.8779273 0.086457253 2.5220473
0.86703146 0.088163614 2.5238309
0.84331465 0.086034536 2.5184441
0.83420253 0.083195925 2.5209796
0.82471627 0.078560352 2.5228314
0.81644511 0.076051474 2.5233228
0.80600715 0.076623678 2.5243115
0.79597533 0.081768513 2.5255156
0.1342584 0.018179655 2.5409193
0.92559242 0.08504653 2.5079739
0.91198981 0.083151817 2.5064063
0.90564519 0.083589077 2.5063908
0.89598179 0.084730625 2.512253
0.84478033 0.082138777 2.5131238
0.83662736 0.07938838 2.5136471
0.82493532 0.077831984 2.5140069
0.81693286 0.07459116 2.5146101
0.80325347 0.078401327 2.5141084
0.93488097 0.08723402 2.499589
0.91711456 0.085629702 2.5059628
0.9043957 0.086506605 2.4999728
0.89432335 0.088622332 2.5027034
0.88620865 0.085878134 2.5002358
0.87988818 0.086317539 2.5002236
0.84713948 0.083868742 2.5068665
0.83473146 0.084264517 2.5069156
0.82547712 0.084439754 2.5069718
0.81768471 0.080713749 2.5076442
0.8087905 0.079913139 2.5078554
0.93651044 0.08806181 2.4895067
0.91190755 0.083155155 2.4944663
0.90493894 0.08505106 2.4912508
0.8951391 0.086437941 2.4911289
0.88444066 0.085054159 2.4924405
0.93709409 0.088961601 2.4814146
0.92919016 0.085735083 2.4760048
0.91457164 0.083912611 2.4793999
0.90588456 0.082623959 2.4826622
0.89754301 0.087922573 2.4819462
0.57089919 0.058022261 2.4867306
0.5655542 0.055020571 2.4872322
0.55733728 0.055289745 2.486275
0.94653738 0.088310003 2.4694936
0.93525445 0.093089104 2.4718881
0.92452884 0.0893538 2.4695582
0.90894485 0.089962244 2.4755778
0.57071251 0.058517456 2.4777038
0.56474745 0.057980776 2.4778416
0.55804455 0.060402155 2.4775581
0.54409873 0.055113792 2.4784636
0.95198172 0.089816332 2.4602783
0.94478524 0.092193365 2.4600146
0.93504578 0.090981483 2.4592917
0.92579627 0.093506336 2.4629972
0.56420946 0.059953928 2.4715967
0.5552693 0.059149504 2.4718027
0.54036117 0.057807446 2.4721451
0.53486627 0.055296659 2.4725575
0.5291276 0.053771973 2.4728322
-0.23697679 -0.014163494 2.4815626
0.94724983 0.086373806 2.4518521
0.93688178 0.088969707 2.4516053
0.94716185 0.086376667 2.4399076
0.93597859 0.09091258 2.4424133
0.43418926 0.040207624 2.4517069
0.4241744 0.044851542 2.4511995
1.5827932 0.15014577 2.4163511
1.5771958 0.14863133 2.4195223
0.5040741 0.055582285 2.437021
0.49694487 0.051240206 2.4416363
0.48331001 0.053206444 2.4405358
0.47422329 0.052895546 2.4376879
0.46587521 0.049119473 2.4382536
0.45381203 0.04853797 2.438457
0.43880531 0.0476861 2.4447024
0.079377294 0.010296345 2.4526672
0.067279994 0.010221243 2.4467726
1.5910286 0.15241003 2.4040768
1.5734597 0.14880729 2.4104722
1.5458275 0.14027667 2.4054067
0.970734 0.088519573 2.4154825
0.96353012 0.090893269 2.4182639
0.95492262 0.091797829 2.4192441
0.04613841 0.0083291531 2.4351802
1.5930462 0.14957261 2.3983762
1.5837994 0.15277314 2.3980162
1.5386981 0.1406486 2.3993485
0.98256356 0.089589596 2.4092455
0.97358048 0.095838547 2.4086154
0.95037568 0.092736721 2.4152105
1.5846767 0.15134788 2.3891575
1.5161768 0.1436739 2.3870397
1.5078802 0.14595199 2.386817
1.4517196 0.13182402 2.3885107
1.4446126 0.13269377 2.3914435
1.4239248 0.13435817 2.3943429
1.4143969 0.13400483 2.3944247
1.4039867 0.13004589 2.3919179
1.3966541 0.13139987 2.3947988
0.99345899 0.092597485 2.3968303
0.98499691 0.093176603 2.4008439
0.012941856 0.0043497086 2.4179232
1.6024468 0.15447283 2.3738043
1.5431834 0.14762735 2.3745747
1.5327091 0.14819717 2.3745432
1.518795 0.13988209 2.3814287
1.5057824 0.14400673 2.3780417
1.4986168 0.14008522 2.3784697
1.4761139 0.13907099 2.3756616
1.4632535 0.13388085 2.3762474
1.4550983 0.13617158 2.3760519
1.4466934 0.13415217 2.3792946
1.4363128 0.13498259 2.3792632
1.4255409 0.13485241 2.3803246
1.4168694 0.12995601 2.3798866
1.4046621 0.13364601 2.3795729
1.394694 0.1324122 2.380753
1.0137004 0.095435381 2.387325
1.0025862 0.099473476 2.3899996
0.99482149 0.09625411 2.3904457
0.98439646 0.098844528 2.3902891
1.6052103 0.15069437 2.3681562
1.5013198 0.14537764 2.3689394
1.4433047 0.13410735 2.3703322
1.414868 0.13759732 2.3701477
1.3953987 0.13281798 2.3737335
1.3710023 0.12558413 2.3716464
1.3649088 0.12503576 2.3717458
1.0216104 0.098171949 2.377995
0.00075157359 0.0052850246 2.3999438
-0.0051949732 0.0087826252 2.3996341
1.5788237 0.14933324 2.3623164
1.3921766 0.13253856 2.3618436
1.3847873 0.13389277 2.3587804
1.3770182 0.12613082 2.3655646
1.3641956 0.13102603 2.3651798
1.3541751 0.1265955 2.3656929
1.3459109 0.12938571 2.359519
1.0951194 0.099757433 2.3650041
1.0653837 0.097081184 2.3656311
1.0545841 0.100142 2.3654649
1.0470872 0.096442699 2.3659225
1.0370446 0.098056793 2.3688743
1.0265684 0.10063982 2.3717234
1.6105317 0.1521976 2.3499498
1.6061676 0.14878559 2.3442414
1.5954833 0.14933658 2.344229
1.5623215 0.14836574 2.3474424
1.3561449 0.1282959 2.353569
1.345228 0.13033795 2.3534722
1.3373523 0.12761283 2.3537951
1.3288263 0.12079644 2.3545082
1.0881436 0.10115147 2.3589849
1.0712757 0.097616911 2.3595328
1.0620037 0.10383964 2.3590553
1.5467196 0.14646578 2.3386767
1.3160808 0.12570643 2.3452158
1.1063628 0.10179353 2.3467598
1.085659 0.10597396 2.3526018
1.0758024 0.10710335 2.352622
1.5847983 0.14654064 2.3284659
1.5789648 0.14836478 2.3323536
1.5612915 0.14476061 2.3297372
1.556312 0.1422987 2.3269551
1.3114853 0.12429619 2.3324661
1.3014151 0.12339187 2.3306599
1.2971349 0.11998224 2.3309898
1.1200851 0.11110497 2.333854
1.1117046 0.10329342 2.3346233
1.1043034 0.10564899 2.337502
1.5547097 0.14418197 2.3147995
1.3050255 0.12775493 2.3243048
1.2862903 0.12203574 2.3249736
1.2745289 0.12047601 2.3222558
1.1863813 0.11506581 2.3207748
1.1562634 0.10731196 2.3247614
1.143765 0.11324143 2.3274212
1.1274755 0.10875082 2.3280008
1.5518147 0.14795923 2.3085413
1.2343874 0.11334276 2.3143375
1.2153293 0.11364388 2.3145556
1.2058238 0.11379647 2.3146656
1.1982398 0.11613846 2.3145854
1.175465 0.11207271 2.3151917
1.1674125 0.11538053 2.3150461
1.5628393 0.14190507 2.2968676
1.5520511 0.14294529 2.3028941
1.5549242 0.14322019 2.2848291
1.5450435 0.14737701 2.2786701
1.5230894 0.14540124 2.2790062
1.5470407 0.14453769 2.2728202
-0.34626278 -0.024851084 2.3103218
1.5404879 0.14396405 2.2549274
1.5404041 0.14396191 2.2489314
-0.35857898 -0.026946306 2.2866857
1.5319723 0.14623284 2.2429399
1.5243366 0.14756203 2.2429776
1.5179328 0.1469965 2.2311268
-0.37592772 -0.02445364 2.2629311
1.5312012 0.14669704 2.2100124
-0.39546254 -0.034255266 2.2396505
-0.41806147 -0.02818656 2.1980884
-0.42470679 -0.031798124 2.1862955
-0.44971904 -0.038038731 2.1389325
-0.46805921 -0.03963542 2.0794861
-0.46688157 -0.033465147 2.0618417
1.3331432 0.12855315 2.0080931
1.3877035 0.1334691 2.0009184
1.3615667 0.12910056 2.0013785
1.3445882 0.13059664 2.0019443
1.4275374 0.13201952 1.9937056
1.4225094 0.13459659 1.9880416
1.4119325 0.13263297 1.9922079
1.3859181 0.12625742 1.9945322
1.3603156 0.12596941 1.9952393
1.330004 0.12828422 1.9932613
1.3028309 0.12584114 1.9908696
-0.49788842 -0.041268826 2.032357
1.4267832 0.13297582 1.9758384
1.4218295 0.13554835 1.9821508
1.4151797 0.13091803 1.9820247
1.3984793 0.13647652 1.9769454
1.290632 0.11970854 1.9848139
1.262826 0.1182301 1.967573
1.2282912 0.11765814 1.9506185
1.2080659 0.11433625 1.9389778
1.1985348 0.11448932 1.9362876
1.1879508 0.11656332 1.9338145
-0.49211147 -0.039180517 1.9696486
-0.49850968 -0.041772604 1.9695969
1.175976 0.11549091 1.928106
-0.46269909 -0.037024021 1.9540145
-0.49846086 -0.041255951 1.9606867
1.13472 0.11078072 1.9169211
1.1395829 0.11323977 1.9110878
-0.45655379 -0.03494525 1.9391119
-0.49243274 -0.039689302 1.9427458
1.1077924 0.1023252 1.8989029
1.0988853 0.1075716 1.8997571
1.0567507 0.10479832 1.8887678
1.064514 0.10147047 1.8821836
1.0502186 0.10522914 1.8771141
-0.44398159 -0.029248476 1.906584
-0.45127046 -0.036459208 1.9089208
-0.47468197 -0.037051678 1.9066622
-0.47773287 -0.037832737 1.9096569
-0.44457352 -0.031813622 1.8973466
-0.45060316 -0.032860279 1.8974231
-0.45992529 -0.035715342 1.8973818
-0.47186938 -0.03729701 1.9005698
-0.44452953 -0.031297684 1.8884765
-0.45002145 -0.029776096 1.88887
-0.45987931 -0.035198927 1.8884975
0.98606563 0.096458435 1.8481274
-0.43285006 -0.030742407 1.8792013
-0.43898287 -0.03230238 1.8792049
-0.44870493 -0.037212133 1.8818691
-0.46081492 -0.039307356 1.8790259
0.95508528 0.096699476 1.8431425
0.94841683 0.09307909 1.8388612
-0.41507715 -0.028625488 1.8639687
-0.42160434 -0.032236814 1.8636887
-0.43027747 -0.032012224 1.867015
-0.4402146 -0.037946463 1.8665328
-0.41551325 -0.030675173 1.85773
-0.42083898 -0.02813077 1.8582957
-0.42972139 -0.028929949 1.8585036
-0.43964693 -0.034863234 1.8580005
0.85731721 0.079852819 1.8257589
0.82929522 0.080858946 1.8267479
-0.43325612 -0.031760216 1.8492799
-0.44132453 -0.033327103 1.8503337
-0.45219782 -0.039011478 1.8518794
-0.41527134 -0.02861619 1.8342035
-0.42179984 -0.032227755 1.8338835
-0.43341842 -0.03227067 1.8402724
-0.44039413 -0.037938356 1.83966
-0.33840773 -0.022700787 1.8262651
-0.3617923 -0.022789717 1.8271438
-0.3678956 -0.024346828 1.8271284
-0.39123088 -0.024431229 1.8280039
-0.40977624 -0.030132055 1.8278002
0.3667337 0.03976059 1.8047493
-0.21931015 -0.0089468956 1.8119994
-0.27078089 -0.021139383 1.8119845
-0.28268865 -0.022211075 1.8122699
-0.29154822 -0.02250433 1.8125652
-0.29974207 -0.018201828 1.8135921
-0.30864882 -0.01900363 1.8138056
-0.32020754 -0.018028021 1.8144147
-0.33228636 -0.020629883 1.8174316
-0.34202671 -0.020667553 1.8187923
-0.3505176 -0.024787903 1.8144757
-0.35981876 -0.028150558 1.8202477
-0.37169871 -0.029219389 1.8205307
-0.38330293 -0.028752089 1.8210517
-0.38987741 -0.0273242 1.8175628
0.09093909 0.012933969 1.7979398
-0.016836371 0.0082736015 1.8011563
-0.12159884 -0.0066988468 1.8026385
-0.13614309 -0.0024642944 1.8039076
-0.15021202 -0.0057446957 1.8019154
-0.1720449 -0.0077114105 1.8044174
-0.17845309 -0.013328075 1.8037255
-0.19929445 -0.014699936 1.8043052
-0.24109025 -0.018965244 1.8052189
-0.3005074 -0.023305178 1.8068125
-0.31240878 -0.024376392 1.8070982
-0.32727829 -0.025714636 1.8074546
-0.34165025 -0.023984671 1.8083055
-0.35089174 -0.026832104 1.8081889
-0.37519297 -0.032043219 1.8082631
-0.38616142 -0.02799058 1.8093683
1.0089912 0.082457066 2.8956375
0.9905659 0.08180213 2.9016173
0.97914356 0.086320162 2.8999426
0.968503 0.082087994 2.8982186
0.96130788 0.077154636 2.8997788
1.0020351 0.083850622 2.8920653
0.99282253 0.085711479 2.8903246
0.97837454 0.085419655 2.890234
0.96892619 0.080873728 2.8896201
0.99032438 0.081796646 2.883574
0.98082942 0.081953049 2.8804002
0.97112048 0.078053236 2.8825619
0.9310056 0.07444644 2.8792872
0.95962989 0.080058575 2.8657663
0.95125997 0.077792883 2.8664062
0.93646348 0.075956821 2.8668466
0.9304617 0.075416565 2.8669615
0.97756785 0.081678391 2.8594368
0.96684766 0.077688456 2.8605933
0.95828295 0.082967997 2.8588281
0.95034862 0.079732895 2.8597779
0.9594925 0.080057144 2.8537672
0.95070511 0.078762054 2.8540919
0.95438772 0.077090025 2.8396482
0.92456222 0.073904276 2.837389
0.95023739 0.079245806 2.8299561
0.9240936 0.074875832 2.8310914
0.9483788 0.07606411 2.8189116
0.94112688 0.078436613 2.81815
0.93455809 0.075979471 2.6511405
0.9336856 0.077923059 2.644722
0.76554382 0.06485486 2.5944424
0.8288281 0.068544626 2.5813529
0.81689256 0.067470551 2.5816386
0.80760038 0.067639589 2.5846612
0.79796308 0.068786144 2.5874839
0.78662801 0.066004276 2.5851123
0.84963208 0.070427895 2.5688863
0.8377381 0.06935215 2.575155
0.82956409 0.074666023 2.5741949
0.80820942 0.071401358 2.5729716
0.79616898 0.070655823 2.5712044
0.79050291 0.063591242 2.5735776
0.77870911 0.062027931 2.5709631
0.15348066 0.0067644119 2.5847781
0.85366547 0.075837612 2.5618691
0.80902237 0.071819544 2.562933
0.79817152 0.067818403 2.5637546
0.15739076 0.0071253777 2.5747054
0.92066973 0.077845812 2.5490782
0.87298805 0.073554516 2.5501921
0.86591303 0.075937033 2.5557904
0.80959529 0.072888374 2.5527804
0.79829317 0.067332983 2.5548692
0.78899938 0.067504883 2.5549145
0.18357874 0.0074729919 2.5665584
0.15633117 0.0065331459 2.5668142
0.88781047 0.074899197 2.5378742
0.8785007 0.075067043 2.5409131
0.80591834 0.071558952 2.5420971
0.79753548 0.069289446 2.5455537
0.19528636 0.011562109 2.5537856
0.18614656 0.01250124 2.5566587
0.17727458 0.0089330673 2.5543134
0.17138152 0.0063860416 2.5547791
0.15334092 0.0047569275 2.5611355
0.1467226 0.013241053 2.553674
0.92609435 0.079358816 2.5308251
0.88580328 0.07976532 2.531069
0.19546269 0.0085587502 2.5482986
0.18942627 0.0080153942 2.5484171
0.1652177 0.0058419704 2.5428772
0.15918161 0.0052988529 2.5429938
0.92800182 0.082056522 2.5243721
0.91821665 0.078322649 2.5210924
0.9059723 0.075541735 2.5196609
0.89627248 0.076679945 2.5255346
0.88873667 0.080034733 2.5250282
0.81138289 0.073077917 2.5208819
0.16807197 0.0076167583 2.5365589
0.15886514 0.0093085766 2.5363183
0.94635546 0.079857588 2.5086389
0.9364019 0.083834171 2.5090747
0.93027008 0.083783627 2.5121195
0.91561145 0.081960201 2.5125403
0.90689474 0.08067131 2.512825
0.81134564 0.073080063 2.5149081
0.16891235 0.0088758469 2.5283375
0.15898955 0.0063004494 2.5308075
0.94588882 0.083183527 2.5001349
0.92721426 0.083519459 2.5002439
0.9153263 0.082449436 2.5005181
0.94738489 0.081981182 2.4923363
0.92756367 0.082550526 2.4914296
0.91652024 0.081893682 2.4906368
0.57334602 0.048655987 2.497092
0.56859672 0.04318738 2.4979739
0.95760906 0.07720232 2.4769919
0.94892198 0.082971334 2.4792159
0.92622072 0.083111763 2.4804029
0.91817367 0.08272171 2.4825301
0.5548414 0.049012423 2.4912224
0.54664695 0.044751406 2.4859409
0.96353221 0.077740908 2.4708588
0.95501846 0.083024025 2.4701765
0.53460324 0.0436728 2.4802153
0.52521729 0.044345856 2.4742112
0.96941018 0.078280687 2.4587278
0.96090305 0.083561659 2.4610701
0.52008033 0.039856195 2.46889
0.96635973 0.078014135 2.4497972
0.95756316 0.081590414 2.4503989
0.94634086 0.08125639 2.4465747
0.12193865 0.0070531368 2.4708042
0.10974054 0.0079770088 2.4647555
1.5786853 0.14220929 2.4233086
0.95691937 0.07818079 2.4408774
0.50743496 0.040755987 2.44486
0.48331147 0.039086103 2.4483438
0.46575746 0.034988642 2.4460502
0.091616571 0.0063512325 2.4590907
0.98581403 0.082803249 2.4339728
0.97709054 0.08151412 2.4342322
0.94960272 0.080557585 2.4286656
0.51232427 0.04623723 2.4441018
1.607641 0.13978457 2.4115734
1.5578552 0.13328815 2.4122441
1.5464188 0.13024807 2.4065428
1.4479195 0.12340021 2.4074945
1.4366955 0.12541485 2.4072981
1.4305164 0.12485862 2.4073839
0.99211919 0.082373381 2.4219723
0.98679221 0.080384254 2.4192774
0.97718608 0.08338356 2.4200194
0.055339087 0.001086235 2.441992
-0.016912993 -0.0033946037 2.4370542
1.600801 0.13918543 2.3934708
1.4819328 0.126472 2.3949966
1.4750352 0.12685943 2.3949757
0.99709904 0.084848642 2.4096346
0.99070376 0.085281372 2.4096575
0.025099698 -0.002632618 2.4306388
0.019009996 0.0018658638 2.424155
-0.017037865 -0.0044057369 2.4281664
1.6021044 0.13729191 2.3876185
1.5021453 0.1353538 2.3879595
1.4880741 0.12703013 2.38889
1.4767232 0.12903333 2.3887146
1.4624876 0.12573576 2.3891213
1.4524696 0.13087797 2.3946118
1.441345 0.12786293 2.3919826
1.434846 0.12778211 2.3920202
1.4245908 0.12837434 2.3890035
1.4153612 0.12754369 2.3891387
1.4092171 0.1269908 2.38923
1.3947644 0.12266374 2.3917763
1.2371975 0.10445213 2.3929272
1.0157709 0.084523678 2.3974705
1.0040642 0.087501049 2.3992746
0.99527907 0.088722944 2.4032218
-0.017162438 -0.0054171085 2.4192603
1.496347 0.12929225 2.3825977
1.4821888 0.1305387 2.3825192
1.4757698 0.12542701 2.380065
1.4705756 0.12344432 2.383307
1.4597728 0.12952948 2.3827162
1.3931841 0.12152338 2.3809037
1.027595 0.085598707 2.385222
1.0198677 0.088930607 2.3909447
0.0068137683 -0.00022673607 2.4094727
-0.011247393 -0.0018494129 2.4067996
1.6130328 0.14031339 2.3631001
1.3930546 0.1215198 2.3719025
1.3820406 0.11851215 2.3722813
1.3618664 0.11972094 2.3723052
1.0355707 0.088338137 2.3788445
1.6200832 0.13994527 2.3570695
1.3911008 0.12437367 2.3656347
1.3862227 0.12191844 2.3659105
1.345916 0.1193018 2.3634822
1.336705 0.11343431 2.3611288
1.1054946 0.091617584 2.3656774
1.084586 0.089735746 2.366116
1.0540911 0.088498116 2.3726091
1.0439869 0.090109348 2.372571
1.5643513 0.13645291 2.3454735
1.3354871 0.12038779 2.3544867
1.3232822 0.11424828 2.3551717
1.3168466 0.11417842 2.3492434
1.1114159 0.092155933 2.3595567
1.1059382 0.096706629 2.3561954
1.0860691 0.092899084 2.3597984
1.0791445 0.094292402 2.3597517
1.5940025 0.13761449 2.3392072
1.5751457 0.1399529 2.3360772
1.5628139 0.13379979 2.339673
1.313455 0.11438298 2.3432651
1.3052436 0.1121316 2.3435469
1.5550005 0.13965511 2.333194
1.5465579 0.13738298 2.3334291
1.3122091 0.11629248 2.3371217
1.3055744 0.11670351 2.3371551
1.2964759 0.11588717 2.3343294
1.1320773 0.10008597 2.3346293
1.1167293 0.093658686 2.3413663
1.5808895 0.13645077 2.3212421
1.5695561 0.13341451 2.3215454
1.2786818 0.10824513 2.3261731
1.2650288 0.10971022 2.3202229
1.2539206 0.10703015 2.3205657
1.1709099 0.097542763 2.3223553
1.147016 0.095386982 2.3288369
1.1395093 0.097735882 2.328743
1.5699537 0.13245845 2.3034861
1.2281417 0.10773993 2.3148406
1.5607033 0.13566399 2.2973042
1.5467525 0.13641953 2.3033919
1.5654542 0.13811874 2.2850494
1.5534842 0.13603354 2.2852888
1.5611192 0.1347096 2.2792687
-0.35481179 -0.040737629 2.305373
1.5544301 0.13412929 2.2552514
1.5373074 0.12958026 2.2375798
-0.36615887 -0.036696196 2.2812707
-0.37307489 -0.042354107 2.2756171
1.5344808 0.13336372 2.2314377
-0.40210643 -0.037866831 2.227865
-0.41438791 -0.039963961 2.2101238
-0.43336082 -0.045676947 2.1805017
-0.44488016 -0.043667793 2.1567252
-0.45755085 -0.04679203 2.1209288
-0.46257272 -0.042187452 2.1031938
-0.46889487 -0.043748379 2.0853128
-0.51112634 -0.049548864 2.0681348
1.3884466 0.12244749 2.0002084
1.3293251 0.11410236 2.0013254
-0.49995986 -0.050533056 2.0377917
1.4233084 0.12861466 1.9936082
1.4166763 0.11895084 1.9871573
1.3523999 0.11820078 1.994953
1.3243361 0.11164808 1.9892991
1.3159112 0.11492205 1.989758
-0.47579578 -0.046331406 2.0254068
-0.47516969 -0.043245792 2.0196176
1.4289331 0.12006474 1.9748356
1.398607 0.12641311 1.9702168
1.2843878 0.11411428 1.9756113
-0.475467 -0.044272423 2.0105653
-0.47601238 -0.046326637 1.9984363
-0.50025499 -0.050527334 2.0018034
1.2354813 0.11073947 1.9557852
-0.47675842 -0.049409628 1.9892
1.2244587 0.10774231 1.9438715
-0.4772554 -0.051465273 1.9830301
-0.49472401 -0.051015854 1.977597
-0.46942821 -0.041672468 1.9657159
-0.48906693 -0.051506758 1.9683743
1.1898885 0.10162306 1.9263282
1.1827763 0.10300446 1.9206847
-0.47014084 -0.04475522 1.9594486
-0.49715683 -0.048192024 1.9569623
1.1908913 0.099702597 1.9201102
-0.46897367 -0.048001051 1.9490894
-0.47730449 -0.050429344 1.9471017
-0.49127516 -0.04765439 1.9478402
-0.49490878 -0.051010847 1.9536027
-0.46564555 -0.050382376 1.9407271
-0.48037443 -0.050694704 1.9351676
-0.4907442 -0.049277782 1.9376624
1.1152407 0.099971533 1.8984176
-0.45868209 -0.044704914 1.9291304
-0.4712531 -0.048860312 1.9290737
-0.47838548 -0.045804501 1.9276603
-0.48913047 -0.05046916 1.9294789
-0.45842108 -0.043161392 1.9203167
-0.46767405 -0.045506001 1.9203496
-0.47946367 -0.046063185 1.9206765
-0.48825189 -0.046352863 1.923929
1.062327 0.093212366 1.8782512
-0.46142557 -0.043169022 1.9084443
-0.47006884 -0.042687178 1.9087979
-0.47039786 -0.043711185 1.8937223
-0.47702119 -0.047331095 1.8934823
1.0161637 0.085050106 1.8516372
-0.44959912 -0.041319132 1.8753645
-0.46125379 -0.041362524 1.8787613
-0.47150543 -0.048333168 1.878176
-0.45006648 -0.043371677 1.8691118
-0.45866892 -0.04263401 1.8695234
-0.46593782 -0.049335957 1.8688427
-0.4503428 -0.0443964 1.8599951
-0.45979679 -0.047769785 1.8628473
0.85066932 0.073206902 1.8249671
-0.42916009 -0.039945841 1.8329515
-0.41828847 -0.044001579 1.8259133
-0.36115178 -0.035824537 1.8130687
-0.37009338 -0.0366292 1.8132821
-0.37912741 -0.037946463 1.8134143
-0.39970377 -0.038286448 1.8141525
-0.40833172 -0.04276228 1.8177431
-0.16078573 -0.014761686 1.8028008
-0.16685088 -0.01631546 1.8027754
-0.18470156 -0.016914368 1.8033674
-0.19096547 -0.020501614 1.8030099
-0.21195747 -0.022895098 1.8034254
-0.22076744 -0.022176027 1.8038889
-0.2300766 -0.026037693 1.803605
-0.28980169 -0.0309093 1.8051207
-0.31891474 -0.028486967 1.803676
-0.33386794 -0.030339718 1.8069375
-0.36092696 -0.034286976 1.8073318
-0.36942211 -0.032531738 1.8079566
-0.15547819 -0.022342205 1.7953215
-0.17009185 -0.019121647 1.7964391
-0.17948385 -0.024502754 1.7958902
-0.20330982 -0.024625778 1.7908043
-0.21493292 -0.022653341 1.7975924
-0.22047608 -0.019120693 1.798411
-0.22644474 -0.01965785 1.7985537
-0.2898362 -0.030907154 1.7991314
-0.32292074 -0.035396576 1.7996687
-0.34067836 -0.0359869 1.8002663
-0.34648189 -0.03550148 1.8005769
-0.37087497 -0.040720701 1.8006459
1.0168196 0.079128027 2.8968568
0.95652568 0.073701859 2.8978641
0.95340139 0.071400404 2.9026093
1.019888 0.072350979 2.8931048
1.0117762 0.076161385 2.8887117
1.0020138 0.076797962 2.8853624
0.95953131 0.073728561 2.8888583
0.95228887 0.068790913 2.8904033
0.94402826 0.068552494 2.8893843
0.93272257 0.070562124 2.8865891
0.9989146 0.076524734 2.8793833
0.99156523 0.078888416 2.8785241
0.96749055 0.076721668 2.8789451
0.96190149 0.075210094 2.879374
0.95308745 0.073912859 2.8796985
0.94064122 0.073801041 2.8795996
0.92284685 0.071692705 2.8831048
0.99019378 0.074739695 2.8708158
0.98172122 0.077337503 2.8708858
0.97178918 0.073839426 2.8708997
0.96140397 0.076179266 2.8730397
0.95301759 0.073911905 2.8736827
0.94203919 0.072757721 2.8719373
0.9284178 0.0705235 2.8725209
0.9217481 0.066562653 2.8727307
0.9892512 0.069620848 2.8633914
0.98053473 0.074892282 2.8556037
0.97154093 0.074079752 2.8587818
0.94092858 0.072585583 2.8589542
0.93160242 0.072502375 2.8588943
0.92343777 0.069748163 2.8627012
0.91580534 0.065534353 2.8609662
0.97696263 0.068531275 2.8455033
0.97317457 0.072552919 2.8522477
0.95961064 0.072510242 2.8501306
0.94995332 0.073153496 2.8498418
0.94157475 0.068367958 2.8492565
0.929533 0.069803238 2.8507125
0.92153835 0.071600914 2.8540854
0.91591674 0.065048456 2.8520885
0.96273267 0.072295189 2.8411996
0.94943655 0.074123859 2.8405204
0.94322056 0.069195747 2.8409877
0.92983484 0.071350098 2.8422222
0.92144102 0.066562176 2.8426352
0.96135813 0.075204611 2.8312767
0.95570982 0.073693275 2.8256826
0.94217443 0.068943262 2.8300297
0.93214995 0.070559263 2.8324671
0.91919017 0.066705704 2.8315454
0.95860881 0.066900969 2.8217297
0.94886005 0.075093746 2.8252082
0.93887031 0.069158077 2.8209157
0.9328568 0.068616867 2.8210313
0.92365634 0.068290472 2.8240747
0.94321704 0.068547964 2.8131042
0.8593896 0.064091682 2.7439938
0.90913093 0.062594175 2.6602395
0.89972574 0.0627563 2.6602261
0.92624229 0.066161871 2.647362
0.91827101 0.065440893 2.6515555
0.91039258 0.064397335 2.6498036
0.89867282 0.065190077 2.650661
0.92660803 0.065191746 2.6415625
0.91857636 0.06951046 2.6406364
0.91379863 0.066055536 2.6414123
0.89861393 0.065193176 2.6416521
0.88720965 0.062654257 2.6422508
0.87183189 0.062278509 2.6423886
0.92013711 0.065625906 2.6324675
0.91213143 0.06490612 2.6316502
0.89673972 0.062007427 2.6333365
0.88995332 0.063413382 2.63306
0.88095939 0.062603712 2.6332703
0.87027943 0.060803175 2.6327007
0.93636715 0.071133375 2.6162179
0.92045903 0.064657211 2.620647
0.90904891 0.069679976 2.6196353
0.89916605 0.063497066 2.6209812
0.88819426 0.062426329 2.6202524
0.86610246 0.06077075 2.6247096
0.90719712 0.066496611 2.6113038
0.89679635 0.061527491 2.61238
0.89079493 0.060987234 2.6125205
0.88101333 0.062123537 2.6123328
0.87996376 0.062036037 2.6043375
0.87273258 0.059369802 2.6039166
0.83662981 0.056133986 2.589725
0.8263492 0.058737516 2.5892777
0.81646293 0.060368538 2.5890195
0.80665129 0.053430319 2.5964627
0.7995916 0.05581975 2.5960305
0.78972489 0.05745244 2.5957661
0.78156465 0.054202795 2.5904527
0.88062489 0.062619448 2.5821733
0.84259439 0.056676149 2.5835624
0.7778455 0.055890083 2.5841391
0.88377929 0.062405109 2.5761814
0.87701136 0.063812256 2.5759561
0.85938495 0.06122303 2.5705523
0.84557104 0.065015554 2.5759311
0.78643399 0.057679415 2.574728
0.78011906 0.058116436 2.5776916
0.16619502 -0.0021739006 2.5864248
0.16001372 -0.00071382523 2.5861657
0.87730139 0.0628438 2.5611112
0.86699629 0.065442324 2.563704
0.78833151 0.060883045 2.5651135
0.16781875 0.0023503304 2.5755498
0.15365733 0.0027525425 2.5795217
0.19597562 0.0040543079 2.5641232
0.1898441 0.0050120354 2.5669787
0.17797178 0.00091862679 2.5677533
0.16766405 0.003017664 2.5654049
0.92426336 0.069105864 2.538609
0.89036107 0.061007738 2.5463023
0.2081065 0.0036416054 2.5551124
0.20180739 0.0060994625 2.5547101
0.17755178 0.0059278011 2.5608463
0.16856159 0.0036087036 2.5582781
0.15959544 0.0012896061 2.5587144
0.94700289 0.066626072 2.5268331
0.92422199 0.069107771 2.5326004
0.91641784 0.065385818 2.527283
0.90703207 0.065549374 2.5273306
0.89949334 0.068898439 2.5328288
0.19979812 0.0045833588 2.5449464
0.18565968 0.003647089 2.5451646
0.17782061 -8.4161758e-05 2.5468357
0.16951102 0.002863884 2.547374
0.15556628 -0.0010795593 2.5481009
0.95616323 0.06695199 2.520685
0.94723248 0.073205948 2.5197153
0.94042182 0.074609518 2.519536
0.18386085 -0.0010421276 2.5349064
0.1775869 0.0014181137 2.5345347
0.15337949 -0.00076055527 2.5349975
0.95677215 0.07256031 2.5107319
0.17745619 0.0019185543 2.5254095
0.16515666 0.0038361549 2.5251625
0.15627585 1.2159348e-05 2.5258195
0.1473736 -0.0038135052 2.5264761
0.97397667 0.068576813 2.4961829
0.96608043 0.072400808 2.4986634
0.95905745 0.074286222 2.5014298
0.57591832 0.03879714 2.507611
0.17774825 -0.0030908585 2.5201705
0.16848201 -0.0014042854 2.5199525
0.15342741 -0.0042717457 2.5204821
0.14733277 -0.0048172474 2.5175772
0.9670822 0.069978237 2.490006
0.95814276 0.076228619 2.492131
0.5630821 0.040674686 2.4984105
0.55877078 0.033229113 2.4995904
0.97365022 0.069065094 2.4810529
0.96658874 0.07095027 2.4808385
0.95807719 0.076230764 2.4831312
0.55173558 0.036634207 2.4931128
0.54058635 0.031603336 2.4879403
0.97933757 0.070092201 2.4688044
0.97141153 0.07391572 2.4683335
0.98526108 0.070633173 2.4596348
0.97753954 0.073971272 2.4592466
0.11639224 -0.0045366287 2.4724205
1.0035872 0.071285248 2.4473133
0.99715209 0.071714163 2.4473217
0.98753464 0.072358131 2.4503446
0.97725517 0.074457884 2.4501646
0.97017974 0.076344252 2.446981
0.10425362 -0.0066318512 2.4667439
1.0270194 0.074413061 2.4346139
1.0154821 0.072366714 2.4349968
1.0052112 0.07211256 2.4371467
0.99666476 0.07268405 2.4411762
0.98615527 0.075267076 2.440948
0.97481906 0.072736979 2.4383891
0.96736383 0.075592041 2.4411049
0.47571307 0.031347513 2.4464118
0.46093258 0.028505087 2.4469342
0.44557458 0.028632402 2.4500923
0.086074993 -0.01027894 2.4613049
0.073835015 -0.0093586445 2.4552248
1.5713449 0.12441468 2.4193554
1.5591351 0.12231302 2.4135144
1.4670736 0.115031 2.4205062
0.99397492 0.078496695 2.4344382
0.98329055 0.074516058 2.4290504
0.97348112 0.068591833 2.4299035
0.061674345 -0.011455774 2.4495316
1.5448982 0.12305379 2.4073594
1.4900949 0.11509728 2.4083388
1.4687835 0.11720657 2.4141941
1.4599928 0.11708951 2.4122176
1.4425801 0.11686492 2.4143028
1.4350947 0.11820769 2.4141669
1.4276155 0.1145153 2.408592
1.0384489 0.076461077 2.4221923
1.0155729 0.076420307 2.42044
1.0064697 0.078122377 2.419328
0.99753523 0.079503536 2.4182622
0.037284765 -0.01061511 2.437521
1.5402272 0.12465501 2.4011214
1.4962696 0.11565828 2.4022
1.4877657 0.12296152 2.3983817
1.4753753 0.11680818 2.3960776
1.4681978 0.11767197 2.3990328
1.3928561 0.11240649 2.3969283
1.0332229 0.073990583 2.4044724
1.0267745 0.074418306 2.4044971
1.0171391 0.075060606 2.4075429
1.006175 0.078608036 2.4102635
1.5026027 0.12531304 2.3890281
1.4963318 0.12474871 2.3891072
1.4719896 0.12154961 2.3895335
1.3940086 0.11049914 2.3911014
1.0322602 0.075925827 2.3982399
1.023548 0.081190586 2.3977523
1.0121012 0.079146862 2.4041245
0.0068539567 -0.011321306 2.4197261
1.3926377 0.11240005 2.38186
1.3895345 0.10708261 2.3794198
1.3772404 0.11101699 2.379096
1.2245073 0.093233585 2.3882594
1.0450628 0.075072289 2.3861325
1.0372308 0.078400135 2.3858724
1.0303841 0.079795122 2.3918176
-0.0013711117 -0.01776576 2.4104257
1.3906484 0.11525393 2.3725498
1.3590717 0.10888362 2.3734221
1.3434145 0.10798383 2.3676145
1.1069728 0.082671642 2.3725581
1.0980299 0.081861258 2.3787673
1.0749443 0.077772617 2.3734369
1.0510073 0.075612783 2.3799765
1.3489214 0.10948777 2.3674212
1.3283834 0.10613251 2.3619041
1.1224192 0.083058834 2.3663137
1.1159201 0.083482265 2.3663499
1.0947882 0.088130713 2.3691514
1.0765874 0.086999655 2.366483
1.0651642 0.084957838 2.3728309
1.3157779 0.10382915 2.3542132
1.307812 0.10277963 2.3503702
1.1218662 0.084022999 2.3602047
1.1208165 0.085950136 2.354018
1.1009318 0.088187695 2.3600638
1.5747637 0.13134909 2.3367982
1.3033977 0.099363089 2.3446965
1.5866568 0.1288991 2.3278511
1.5795542 0.12926793 2.3278611
1.2956332 0.10673809 2.3351126
1.2857693 0.10182023 2.332628
1.1616263 0.091655731 2.3349624
1.1528767 0.090364218 2.3351827
1.5936687 0.12852716 2.3217769
1.5765517 0.12850189 2.3188486
1.2788858 0.097173452 2.3270655
1.2496021 0.098072052 2.3213201
1.2147553 0.092415333 2.3221962
1.2025017 0.097361326 2.3219626
1.1893241 0.092646837 2.3225024
1.1810945 0.09039402 2.3227863
1.1660148 0.095080614 2.3286159
1.5749654 0.12584686 2.3099704
1.5654984 0.12904382 2.2916603
1.5605356 0.12658095 2.2918632
1.5594735 0.12751532 2.267616
1.5572988 0.13034964 2.2614446
-0.36230424 -0.049466133 2.2938948
1.5547043 0.12409425 2.2315285
1.5462961 0.12636209 2.2315528
-0.38037828 -0.050062895 2.2700279
-0.38631788 -0.049578428 2.2580287
-0.39520329 -0.049361944 2.2491179
-0.40510926 -0.054272413 2.2343266
-0.41025659 -0.049684048 2.2222428
-0.4229981 -0.053838968 2.2044435
-0.42930779 -0.055403948 2.1925032
-0.44146028 -0.056481361 2.174633
-0.4479855 -0.059074163 2.1626759
-0.45265388 -0.052421331 2.1447558
-0.45901051 -0.053985119 2.1267962
-0.46471068 -0.052465916 2.1089072
-0.47256199 -0.06122613 2.096735
-0.47083983 -0.053001404 2.0909827
-0.50846308 -0.063427687 2.0733924
-0.47869393 -0.060732126 2.0546534
-0.47807035 -0.057646275 2.0487843
1.3395748 0.10796857 2.0006576
1.3279803 0.10591722 2.0008454
1.3201278 0.10823441 2.0012057
-0.47884575 -0.060729504 2.0365536
-0.50226623 -0.06082654 2.0432186
1.4032372 0.10967445 1.9899416
1.3958129 0.11102486 1.9872273
1.3206652 0.10728002 1.9951167
-0.47732106 -0.053530455 2.030961
-0.49904451 -0.059010744 2.0281909
1.4179007 0.11705041 1.980971
1.411108 0.11744714 1.9811999
1.4074608 0.1130867 1.9810009
1.308992 0.10523248 1.9832695
1.4021511 0.11614227 1.975353
1.2985272 0.10127187 1.9772551
-0.49898902 -0.057978868 2.0071838
