ply
format ascii 1.0
comment Created by CloudCompare v2.11.3 (Anoia)
obj_info Generated by CloudCompare!
element vertex 1646
property float x
property float y
property float z
end_header
1.276240 -0.169615 2.360260 
1.296120 -0.167188 2.363570 
1.304460 -0.169962 2.367180 
0.296415 -0.159498 2.360930 
0.808828 -0.153779 2.363630 
0.288905 -0.144188 2.366220 
0.456218 -0.146618 2.364400 
0.465435 -0.141714 2.367340 
0.684664 -0.142047 2.368710 
0.754479 -0.144082 2.364860 
0.764072 -0.146539 2.367280 
0.773952 -0.141503 2.366960 
0.786375 -0.146038 2.369540 
0.794951 -0.144418 2.365080 
0.800587 -0.148664 2.369810 
-0.030020 -0.131674 2.368760 
0.457460 -0.131251 2.360060 
0.470540 -0.131084 2.366590 
0.575894 -0.130666 2.367240 
0.582386 -0.130017 2.367230 
0.656340 -0.134761 2.368010 
0.666880 -0.137249 2.368250 
0.676560 -0.135709 2.364940 
0.689593 -0.134471 2.368170 
0.708668 -0.130539 2.367980 
0.742714 -0.133204 2.368360 
0.777176 -0.136709 2.362260 
0.784514 -0.139010 2.362460 
0.281177 -0.123711 2.364650 
0.476586 -0.127444 2.366360 
0.485916 -0.123981 2.366170 
0.495377 -0.121517 2.366050 
0.528294 -0.122272 2.366320 
0.535256 -0.124612 2.366540 
0.544959 -0.123641 2.366530 
0.554485 -0.121676 2.366440 
0.568316 -0.125352 2.366800 
0.574067 -0.120600 2.360030 
0.585276 -0.121883 2.362340 
0.593834 -0.120776 2.366610 
0.603896 -0.127147 2.364990 
0.614440 -0.124722 2.363790 
0.624565 -0.125797 2.367160 
0.633878 -0.122842 2.367000 
0.644238 -0.124841 2.367210 
0.653540 -0.121757 2.360560 
0.664692 -0.127219 2.361000 
0.681723 -0.129056 2.361230 
0.694018 -0.124921 2.367490 
0.704709 -0.127834 2.364510 
0.714695 -0.127912 2.367820 
0.723591 -0.123480 2.367540 
0.734457 -0.126882 2.364600 
0.740966 -0.126165 2.361330 
-0.028494 -0.110145 2.360880 
0.504825 -0.119054 2.365930 
0.514575 -0.118585 2.365960 
0.521347 -0.119931 2.366100 
0.560415 -0.118048 2.366210 
0.593652 -0.119653 2.360070 
0.606582 -0.118360 2.360050 
0.619711 -0.118058 2.360110 
0.625971 -0.116420 2.360020 
0.645992 -0.117453 2.360210 
0.685698 -0.117528 2.360420 
0.699346 -0.119199 2.360620 
0.715174 -0.116097 2.360480 
-0.021953 -0.105569 2.366840 
0.273853 -0.108253 2.363450 
-0.014904 -0.092721 2.365930 
0.266702 -0.094359 2.365530 
-0.005285 -0.086700 2.365570 
0.004182 -0.082718 2.365360 
0.028824 -0.082279 2.365570 
0.035016 -0.081660 2.365580 
0.256541 -0.081714 2.364490 
0.013625 -0.078738 2.365150 
0.022942 -0.076795 2.365090 
0.041428 -0.075959 2.365210 
0.244509 -0.071469 2.364660 
0.256286 -0.076680 2.364110 
0.048016 -0.065181 2.364450 
0.054247 -0.062535 2.364310 
0.063372 -0.064658 2.364560 
0.075682 -0.063933 2.364620 
0.084863 -0.065546 2.364840 
0.091078 -0.062901 2.364690 
0.109595 -0.060037 2.364650 
0.115752 -0.060434 2.364740 
0.240089 -0.066094 2.360070 
0.054488 -0.056562 2.369990 
0.066822 -0.053305 2.369850 
0.072952 -0.052692 2.369870 
0.097359 -0.056201 2.364240 
0.103494 -0.056600 2.364330 
0.121978 -0.052728 2.364210 
0.205404 -0.055013 2.365140 
0.214705 -0.054589 2.365190 
0.227168 -0.055367 2.365360 
0.233450 -0.056763 2.365520 
0.128162 -0.047112 2.366900 
0.134305 -0.044980 2.366790 
0.144534 -0.046129 2.365960 
0.152709 -0.042572 2.363720 
0.195733 -0.040295 2.363930 
0.220719 -0.048928 2.364810 
0.156774 -0.037862 2.367470 
0.164955 -0.038374 2.366560 
0.174138 -0.036696 2.366520 
0.187355 -0.032107 2.367300 
0.183209 -0.029404 2.362990 
0.882806 -0.770105 2.374660 
0.892751 -0.779090 2.372380 
0.901924 -0.772410 2.374510 
1.020600 -0.772267 2.372640 
0.653488 -0.760567 2.376100 
0.888404 -0.767567 2.375530 
0.923554 -0.765518 2.372030 
0.896416 -0.755822 2.374040 
0.911141 -0.756656 2.376700 
0.922704 -0.750818 2.376120 
1.025250 -0.758330 2.371640 
0.876717 -0.745179 2.376510 
0.886424 -0.746342 2.376430 
0.893789 -0.746855 2.376480 
0.918597 -0.747604 2.376910 
0.978762 -0.747286 2.373510 
1.034710 -0.745319 2.375480 
0.974468 -0.736735 2.376320 
0.915632 -0.721415 2.379050 
0.935277 -0.723758 2.378910 
0.954989 -0.725780 2.378850 
0.965409 -0.724877 2.379370 
0.911163 -0.719151 2.379560 
0.921399 -0.718887 2.379900 
1.014400 -0.714656 2.378310 
1.023050 -0.719490 2.377200 
0.987754 -0.701158 2.370990 
0.993365 -0.703962 2.374250 
1.003470 -0.700296 2.371610 
1.018990 -0.700217 2.374610 
1.656690 -0.701790 2.379680 
1.662090 -0.702174 2.379780 
1.674260 -0.700449 2.375350 
1.695120 -0.707320 2.374410 
0.918445 -0.691449 2.371850 
0.925500 -0.690842 2.373920 
0.939219 -0.690940 2.372510 
0.946278 -0.693449 2.374610 
0.956946 -0.692237 2.375210 
0.966571 -0.694616 2.374810 
0.976468 -0.696038 2.374670 
0.985780 -0.696544 2.375630 
0.998607 -0.699595 2.376860 
1.006540 -0.698862 2.374660 
1.012910 -0.697779 2.375980 
1.026700 -0.692447 2.376900 
1.637070 -0.697143 2.377480 
1.644680 -0.696925 2.376920 
1.656600 -0.697234 2.375510 
1.667740 -0.697537 2.375840 
1.674830 -0.694958 2.371420 
1.682640 -0.696321 2.374030 
1.692750 -0.694421 2.377560 
1.715580 -0.690662 2.379390 
1.773260 -0.691204 2.376160 
0.886553 -0.681617 2.375420 
0.897494 -0.682661 2.373680 
0.905837 -0.684492 2.376520 
0.916095 -0.687461 2.376320 
0.929233 -0.689884 2.377740 
0.936384 -0.688873 2.376460 
1.035050 -0.682635 2.374530 
1.043060 -0.681904 2.372310 
1.051350 -0.680525 2.372880 
1.629660 -0.682595 2.378250 
1.633720 -0.689246 2.376710 
1.655940 -0.685127 2.373190 
1.667020 -0.685588 2.373470 
1.671830 -0.686908 2.373320 
1.709900 -0.681781 2.376010 
1.773180 -0.683360 2.378100 
0.873360 -0.671814 2.374230 
0.881218 -0.675175 2.375270 
0.893136 -0.679556 2.379620 
1.045350 -0.675354 2.379350 
1.055310 -0.676712 2.376610 
1.063850 -0.674551 2.374780 
1.077270 -0.673393 2.370160 
1.085450 -0.672496 2.370600 
1.617170 -0.675835 2.379530 
1.624040 -0.678279 2.379150 
1.645390 -0.675322 2.373930 
1.704280 -0.677141 2.374260 
1.716540 -0.671814 2.373330 
1.721070 -0.673928 2.375690 
1.781610 -0.679399 2.373990 
0.856363 -0.662811 2.376200 
0.865147 -0.666170 2.374650 
1.073870 -0.668404 2.376660 
1.086170 -0.663393 2.378300 
1.094690 -0.668737 2.371820 
1.105700 -0.660212 2.374330 
1.575430 -0.660833 2.371160 
1.586150 -0.661910 2.373930 
1.594240 -0.662482 2.374050 
1.605130 -0.661726 2.375510 
1.615550 -0.664479 2.374270 
1.624560 -0.668054 2.373680 
1.636330 -0.667419 2.374240 
1.644520 -0.667678 2.371760 
1.789090 -0.661311 2.378710 
0.853528 -0.659916 2.373390 
1.095950 -0.658208 2.379920 
1.114730 -0.657102 2.372720 
1.128600 -0.655307 2.370880 
1.133770 -0.655667 2.370910 
1.567260 -0.656170 2.374760 
1.573160 -0.658815 2.375190 
1.582530 -0.658717 2.374610 
1.610790 -0.658433 2.372920 
1.738270 -0.657683 2.377630 
1.746570 -0.654029 2.376110 
1.755520 -0.653932 2.376470 
1.765540 -0.652115 2.374560 
1.785470 -0.658111 2.379350 
0.600785 -0.640324 2.371840 
0.850757 -0.648968 2.376220 
1.123210 -0.648717 2.377790 
1.135580 -0.644198 2.379280 
1.145380 -0.646202 2.373660 
1.529710 -0.643898 2.373950 
1.535800 -0.647755 2.373180 
1.545270 -0.645973 2.373920 
1.555060 -0.643725 2.374790 
1.566140 -0.644016 2.375060 
1.774600 -0.647859 2.375940 
1.785690 -0.646145 2.374950 
1.795240 -0.648354 2.376620 
0.557122 -0.631891 2.372830 
0.564792 -0.633719 2.375210 
0.570237 -0.630016 2.379000 
0.596019 -0.635102 2.373080 
0.604052 -0.632556 2.376640 
0.614600 -0.632001 2.374430 
0.625148 -0.631272 2.374910 
0.632957 -0.631818 2.374990 
0.645914 -0.633213 2.374980 
0.656151 -0.635394 2.374680 
0.666551 -0.636121 2.374770 
0.676523 -0.633465 2.372210 
0.685367 -0.632894 2.370830 
0.848092 -0.637223 2.376610 
1.155960 -0.639600 2.375640 
1.165150 -0.636498 2.373990 
1.175520 -0.630538 2.373090 
1.503600 -0.630640 2.371040 
1.526960 -0.634076 2.373610 
1.799980 -0.637249 2.373960 
1.805050 -0.638591 2.373830 
1.810360 -0.635207 2.372070 
0.497588 -0.622342 2.373630 
0.504506 -0.621944 2.377480 
0.513219 -0.621135 2.379720 
0.539445 -0.621364 2.375110 
0.547156 -0.623859 2.374670 
0.559960 -0.627342 2.379420 
0.573047 -0.628117 2.374280 
0.591465 -0.626961 2.375110 
0.638475 -0.629271 2.375810 
0.683483 -0.627038 2.377640 
0.693510 -0.624545 2.375020 
0.704978 -0.624482 2.373560 
0.713539 -0.620189 2.374910 
0.734790 -0.620059 2.370160 
0.845002 -0.627082 2.373860 
1.171280 -0.627948 2.379050 
1.184200 -0.622334 2.375410 
1.195250 -0.621481 2.370500 
1.503540 -0.624539 2.376200 
1.514490 -0.626588 2.375110 
1.524050 -0.627940 2.375960 
1.817780 -0.629031 2.371060 
0.466514 -0.612513 2.372650 
0.473342 -0.616615 2.376200 
0.485715 -0.611521 2.374370 
0.492639 -0.614345 2.372940 
0.508141 -0.619170 2.374780 
0.516107 -0.616307 2.375770 
0.526700 -0.614777 2.373820 
0.534426 -0.617763 2.373260 
0.584364 -0.617175 2.377500 
0.718931 -0.619588 2.375220 
0.724623 -0.617051 2.376030 
0.732735 -0.616150 2.376480 
0.743393 -0.616085 2.374100 
0.768304 -0.610655 2.373480 
0.773349 -0.612306 2.375870 
1.191010 -0.618893 2.376470 
1.203640 -0.614233 2.372540 
1.501960 -0.613871 2.375160 
0.445698 -0.601444 2.372270 
0.453567 -0.602486 2.372230 
0.461363 -0.605795 2.374270 
0.754460 -0.608273 2.375530 
0.766030 -0.608371 2.376710 
0.779557 -0.607527 2.374580 
0.785199 -0.605963 2.375130 
0.793408 -0.605068 2.375570 
0.804057 -0.605489 2.373040 
0.815364 -0.602608 2.374070 
0.823720 -0.601155 2.371950 
0.843688 -0.608419 2.370590 
1.200540 -0.608792 2.379300 
1.213640 -0.603181 2.375600 
1.220150 -0.600698 2.376390 
1.475370 -0.605799 2.373640 
1.486740 -0.605617 2.374020 
1.495000 -0.602714 2.375890 
1.500850 -0.605628 2.374420 
0.427268 -0.590859 2.374490 
0.435139 -0.595154 2.376280 
0.442138 -0.599011 2.376370 
0.453509 -0.597739 2.378840 
0.827402 -0.596352 2.375990 
0.830903 -0.592516 2.379790 
0.843976 -0.594570 2.376860 
1.227530 -0.595991 2.375030 
1.234940 -0.591283 2.373650 
1.251840 -0.590502 2.374270 
1.426280 -0.592233 2.372870 
1.472670 -0.595323 2.376170 
0.398210 -0.580842 2.370840 
0.403482 -0.580233 2.371160 
0.415791 -0.583156 2.374360 
0.836963 -0.589355 2.375310 
1.245010 -0.587088 2.374950 
1.259390 -0.585475 2.370200 
1.264080 -0.581232 2.374130 
1.355490 -0.582383 2.373410 
1.361370 -0.581814 2.373710 
1.386330 -0.584432 2.375570 
1.393150 -0.585835 2.376330 
1.404750 -0.585012 2.375460 
1.417340 -0.588017 2.376440 
1.426420 -0.587023 2.379710 
1.437410 -0.587133 2.374430 
1.444360 -0.584679 2.375230 
1.453040 -0.584308 2.375560 
1.462690 -0.587434 2.375060 
1.470620 -0.588480 2.375020 
0.352935 -0.571867 2.374500 
0.363630 -0.574820 2.374060 
0.374300 -0.577771 2.373620 
0.384903 -0.579005 2.373620 
0.394550 -0.578077 2.375050 
0.406919 -0.579272 2.375110 
1.272590 -0.574479 2.376030 
1.285960 -0.571545 2.376170 
1.294560 -0.575276 2.376380 
1.304560 -0.575782 2.375590 
1.323810 -0.572333 2.375080 
1.333300 -0.570056 2.375890 
1.354620 -0.572524 2.375830 
1.368180 -0.579351 2.374500 
1.377960 -0.576604 2.375430 
0.326115 -0.563545 2.373130 
0.336821 -0.566821 2.375320 
0.344874 -0.569099 2.374970 
1.316530 -0.569866 2.375510 
1.344820 -0.563512 2.377810 
1.351890 -0.566455 2.377260 
0.070055 -0.550566 2.373850 
0.086033 -0.552669 2.373810 
0.094288 -0.555207 2.373410 
0.106408 -0.550192 2.375110 
0.114576 -0.552234 2.374840 
0.122405 -0.552297 2.375070 
0.143454 -0.552157 2.370360 
0.314972 -0.554934 2.375020 
0.055321 -0.541703 2.375700 
0.064213 -0.547220 2.374540 
0.077208 -0.547157 2.374970 
0.103469 -0.547706 2.372960 
0.127085 -0.548391 2.373530 
0.134942 -0.548456 2.373770 
0.145866 -0.545909 2.375680 
0.152406 -0.542025 2.373270 
0.295628 -0.542649 2.372120 
0.301414 -0.548928 2.370690 
0.029667 -0.531094 2.377670 
0.034973 -0.531468 2.377740 
0.043631 -0.534933 2.374380 
0.154295 -0.537590 2.377210 
0.164338 -0.532756 2.373320 
0.172263 -0.532009 2.371020 
0.289507 -0.532430 2.374560 
0.305921 -0.539132 2.378830 
0.005062 -0.525614 2.375590 
0.012102 -0.521382 2.374180 
0.025585 -0.523635 2.376750 
0.034236 -0.526854 2.373460 
0.166273 -0.528325 2.377260 
0.173747 -0.524122 2.375840 
0.181656 -0.522883 2.373650 
-0.011251 -0.510932 2.376150 
-0.004326 -0.518269 2.374470 
0.015499 -0.512815 2.376510 
0.021909 -0.518159 2.375320 
0.186394 -0.518323 2.374970 
0.194113 -0.515930 2.375820 
0.201824 -0.511899 2.371560 
0.215301 -0.512358 2.371860 
0.277685 -0.517237 2.372540 
0.282465 -0.511381 2.379730 
-0.024763 -0.504979 2.373600 
-0.016831 -0.509561 2.376330 
0.204979 -0.509297 2.376010 
0.214535 -0.507091 2.378730 
0.225599 -0.508187 2.373230 
0.236463 -0.508952 2.373370 
0.246707 -0.503309 2.375120 
0.254792 -0.502898 2.375470 
0.263284 -0.506923 2.374710 
0.271587 -0.508975 2.374450 
-0.042005 -0.491476 2.374690 
-0.036061 -0.494670 2.376820 
-0.029894 -0.498858 2.378700 
1.810740 -0.492232 2.370150 
-0.055013 -0.481752 2.376780 
-0.046512 -0.486804 2.372040 
-0.062582 -0.471746 2.373520 
-0.055660 -0.478108 2.372120 
1.791860 -0.475052 2.376650 
-0.080370 -0.465443 2.377370 
-0.075248 -0.464001 2.375090 
-0.066605 -0.466900 2.377420 
-0.089552 -0.450267 2.378140 
1.736570 -0.451240 2.374690 
1.770760 -0.453892 2.375130 
-0.090236 -0.446609 2.373390 
1.713920 -0.440353 2.373830 
1.724380 -0.444366 2.374160 
1.743100 -0.448564 2.374570 
1.755760 -0.449322 2.374720 
-0.098368 -0.436243 2.375740 
1.517840 -0.431708 2.375760 
1.525830 -0.431845 2.372060 
1.533320 -0.431096 2.372050 
1.541320 -0.431308 2.372110 
1.573900 -0.433108 2.372420 
1.581420 -0.432356 2.372420 
1.684950 -0.432120 2.373090 
1.701810 -0.433470 2.373290 
1.547800 -0.428637 2.371980 
1.554780 -0.426926 2.371900 
1.563300 -0.428098 2.372030 
1.586330 -0.426882 2.375850 
1.595490 -0.421994 2.379330 
1.614780 -0.420926 2.371890 
1.622830 -0.421133 2.371950 
1.635730 -0.422954 2.375910 
1.648390 -0.424217 2.376080 
1.654560 -0.420995 2.372150 
1.666490 -0.427896 2.372680 
1.673500 -0.426183 2.372620 
1.690870 -0.428494 2.372890 
1.593380 -0.418007 2.371560 
1.606210 -0.419759 2.371760 
-0.071066 -0.325886 2.376370 
-0.062628 -0.304805 2.374890 
0.346878 -0.295097 2.370940 
0.334680 -0.286919 2.372540 
0.345976 -0.284194 2.376990 
0.357574 -0.284967 2.372580 
0.317768 -0.275884 2.376160 
0.324889 -0.279220 2.376460 
0.338722 -0.279860 2.376620 
0.352492 -0.279495 2.376700 
0.365641 -0.272109 2.376250 
1.142500 -0.271160 2.373580 
0.372191 -0.268418 2.376030 
1.056300 -0.262147 2.376000 
1.067750 -0.264037 2.376200 
1.074300 -0.262370 2.376110 
1.084070 -0.262887 2.375030 
1.095960 -0.262662 2.372750 
1.104380 -0.265867 2.373020 
1.115530 -0.266775 2.373140 
1.126310 -0.266709 2.373180 
1.134400 -0.268935 2.373380 
1.148270 -0.267547 2.373350 
1.153020 -0.261576 2.376420 
0.378246 -0.259718 2.375430 
0.384650 -0.255030 2.375130 
1.005760 -0.250438 2.371470 
1.012980 -0.250728 2.371520 
1.036040 -0.255573 2.375430 
1.043100 -0.255372 2.375450 
1.055220 -0.259219 2.375790 
1.157750 -0.255538 2.376010 
1.163450 -0.252002 2.379240 
0.308955 -0.247421 2.373990 
0.390628 -0.246337 2.374540 
0.940081 -0.245005 2.377650 
0.995331 -0.240926 2.374170 
1.005400 -0.249600 2.378300 
1.016850 -0.248409 2.375970 
1.026010 -0.247470 2.374790 
1.162660 -0.249918 2.372160 
0.396770 -0.239651 2.374090 
0.937247 -0.236044 2.370120 
0.944690 -0.237460 2.377110 
0.950548 -0.233839 2.376870 
0.963852 -0.231496 2.376760 
0.985290 -0.232386 2.376920 
1.164910 -0.238126 2.374770 
1.402380 -0.237067 2.372510 
0.300699 -0.225106 2.378950 
0.405648 -0.227127 2.373230 
0.415111 -0.220615 2.372820 
0.428869 -0.222409 2.379740 
0.926951 -0.226080 2.376180 
0.955090 -0.226301 2.376330 
0.969672 -0.227878 2.376520 
0.977140 -0.229154 2.376650 
1.165670 -0.222871 2.373670 
1.394500 -0.221805 2.378290 
0.421354 -0.215943 2.372520 
0.434495 -0.212739 2.379040 
0.909041 -0.213706 2.375170 
0.917355 -0.217933 2.375520 
0.427339 -0.209273 2.372070 
0.433412 -0.203606 2.371690 
0.443650 -0.204739 2.378490 
0.892187 -0.204261 2.374390 
0.900752 -0.209476 2.374820 
1.166150 -0.207208 2.375930 
1.376340 -0.200348 2.376600 
0.439704 -0.199942 2.371460 
0.445727 -0.194280 2.371090 
0.452492 -0.194747 2.377790 
0.855915 -0.198783 2.373800 
0.865099 -0.194829 2.373550 
0.874852 -0.192841 2.373460 
0.882751 -0.196098 2.373740 
1.169220 -0.197793 2.375250 
1.174730 -0.194207 2.375010 
1.364650 -0.191398 2.375870 
0.454388 -0.183361 2.373640 
0.846046 -0.188639 2.373000 
1.179810 -0.189651 2.374700 
1.184860 -0.185098 2.374390 
1.205450 -0.184050 2.374420 
1.211740 -0.182408 2.374330 
1.288440 -0.180807 2.374630 
1.297960 -0.185926 2.375070 
1.313450 -0.181341 2.374820 
1.325470 -0.184187 2.375100 
1.335370 -0.182690 2.375050 
1.347680 -0.186012 2.375370 
1.353010 -0.182444 2.375140 
0.824841 -0.174704 2.378520 
0.835951 -0.177507 2.372130 
1.189470 -0.179577 2.374010 
1.196600 -0.179876 2.374070 
1.217170 -0.178830 2.374100 
1.222570 -0.175254 2.373860 
1.234390 -0.178119 2.374140 
1.244020 -0.176144 2.374040 
1.253190 -0.173203 2.373870 
1.265930 -0.170410 2.373740 
1.280790 -0.179549 2.374500 
1.300530 -0.176562 2.374390 
0.290422 -0.168453 2.374530 
0.462151 -0.166459 2.375700 
0.812386 -0.166842 2.377850 
0.825075 -0.163416 2.371030 
0.467212 -0.154821 2.374840 
0.686468 -0.150093 2.375870 
0.693947 -0.153393 2.376170 
0.713415 -0.150433 2.376050 
0.728002 -0.155046 2.376480 
0.740908 -0.152742 2.376380 
0.754052 -0.151427 2.376350 
0.785748 -0.156352 2.376900 
0.805375 -0.153816 2.373510 
0.817069 -0.159158 2.370670 
0.282513 -0.146098 2.379200 
0.471793 -0.140196 2.373750 
0.584238 -0.140080 2.374490 
0.657842 -0.141825 2.375070 
0.665689 -0.147112 2.375520 
0.675178 -0.144645 2.375390 
0.699819 -0.149769 2.375920 
0.706144 -0.148125 2.375830 
0.719738 -0.148789 2.375960 
0.732856 -0.147476 2.375930 
0.746474 -0.148138 2.376060 
0.763390 -0.148469 2.376170 
0.773236 -0.147484 2.376150 
0.794002 -0.149455 2.376410 
0.281905 -0.135910 2.371970 
0.477436 -0.133560 2.373290 
0.483772 -0.131914 2.373200 
0.493713 -0.132438 2.373310 
0.503358 -0.130967 2.373260 
0.523603 -0.134002 2.373630 
0.533837 -0.136014 2.373850 
0.546149 -0.130735 2.373530 
0.576435 -0.133777 2.373960 
0.593542 -0.136620 2.374280 
0.603986 -0.139117 2.374540 
0.613265 -0.135659 2.374330 
0.625781 -0.131877 2.374120 
0.635739 -0.131893 2.374180 
0.645921 -0.132898 2.374310 
0.274957 -0.127625 2.377680 
0.509525 -0.128326 2.373100 
0.516317 -0.129671 2.373250 
0.555704 -0.128767 2.373440 
0.565342 -0.127297 2.373390 
-0.022856 -0.118940 2.374130 
0.267614 -0.111155 2.376310 
0.274376 -0.117436 2.370500 
-0.009651 -0.107626 2.379620 
-0.015365 -0.099976 2.372710 
-0.004781 -0.095586 2.374550 
0.003793 -0.090089 2.378330 
0.260521 -0.097696 2.375180 
0.003958 -0.086912 2.371880 
0.010451 -0.081327 2.377690 
0.026818 -0.082011 2.375850 
0.034922 -0.084385 2.375090 
0.253654 -0.087251 2.374300 
0.014745 -0.077442 2.373300 
0.022852 -0.078952 2.371440 
0.043552 -0.074941 2.375450 
0.084735 -0.071816 2.374590 
0.092947 -0.073040 2.375800 
0.106387 -0.070726 2.377810 
0.244626 -0.074027 2.375250 
0.048110 -0.063271 2.370460 
0.054197 -0.064810 2.376790 
0.060459 -0.061148 2.376560 
0.078806 -0.062794 2.373800 
0.097162 -0.067476 2.371280 
0.106458 -0.065029 2.371170 
0.115731 -0.064164 2.374290 
0.121944 -0.060062 2.377090 
0.227412 -0.061663 2.378240 
0.233665 -0.061988 2.375220 
0.240195 -0.068481 2.378910 
0.063696 -0.055703 2.373080 
0.072905 -0.054843 2.376170 
0.125069 -0.053110 2.373490 
0.140458 -0.050115 2.376460 
0.214646 -0.052695 2.371220 
0.222939 -0.052919 2.373360 
0.134309 -0.049717 2.376370 
0.143527 -0.047722 2.373230 
0.189581 -0.040144 2.376120 
0.195795 -0.042497 2.373310 
0.205127 -0.045106 2.373600 
0.214488 -0.047774 2.376980 
0.155752 -0.036441 2.375490 
0.164935 -0.035523 2.375510 
0.174147 -0.036626 2.375690 
0.183360 -0.036717 2.375780 
0.927217 -0.752704 2.380730 
0.919803 -0.743406 2.383170 
0.924992 -0.742792 2.383480 
0.935932 -0.748431 2.382170 
0.946728 -0.745767 2.383200 
0.953961 -0.746758 2.383110 
0.960307 -0.742320 2.384530 
0.651330 -0.737981 2.382470 
0.968413 -0.732151 2.387610 
0.973952 -0.730585 2.388200 
0.999363 -0.730400 2.388900 
1.037540 -0.737331 2.382850 
0.769181 -0.720237 2.385730 
0.873263 -0.728833 2.380990 
0.774710 -0.717695 2.386600 
0.855908 -0.716889 2.383870 
0.870415 -0.719851 2.383430 
0.907443 -0.714010 2.380890 
0.926916 -0.717318 2.380480 
1.049850 -0.716104 2.383960 
1.070550 -0.715591 2.384630 
0.899424 -0.705641 2.383000 
0.903696 -0.708868 2.382220 
0.985288 -0.701236 2.381250 
0.996988 -0.704980 2.380520 
1.004230 -0.706460 2.380300 
1.035340 -0.705694 2.381300 
1.695970 -0.702629 2.380950 
1.701430 -0.703018 2.381060 
0.894324 -0.695523 2.385670 
0.908334 -0.691000 2.382090 
0.916187 -0.690569 2.382410 
0.929114 -0.690492 2.382760 
0.938713 -0.693113 2.382290 
0.945895 -0.695078 2.381930 
0.956975 -0.692430 2.382940 
0.966958 -0.693613 2.382870 
0.976502 -0.696230 2.382400 
1.045480 -0.698585 2.383500 
1.617030 -0.691241 2.384500 
1.625390 -0.692601 2.382670 
1.632910 -0.695207 2.380490 
1.648240 -0.693677 2.384110 
1.654750 -0.693919 2.385180 
1.665420 -0.693747 2.387400 
1.674730 -0.696221 2.381770 
1.686790 -0.691206 2.383510 
1.695110 -0.695715 2.382680 
1.715540 -0.691297 2.384590 
0.876907 -0.682594 2.388800 
0.886249 -0.686661 2.387920 
0.902213 -0.684713 2.383660 
0.924305 -0.689181 2.383000 
0.934711 -0.688928 2.383330 
1.033920 -0.686418 2.381320 
1.053800 -0.689397 2.386230 
1.173600 -0.689920 2.389170 
1.609150 -0.684860 2.387650 
1.614290 -0.685078 2.382430 
1.635770 -0.687237 2.387990 
1.642630 -0.689681 2.387610 
1.677760 -0.688264 2.389280 
1.693560 -0.689730 2.384140 
0.865827 -0.674677 2.388080 
0.873897 -0.673398 2.383410 
0.882642 -0.676633 2.383630 
0.894102 -0.675847 2.385880 
1.045380 -0.675491 2.384570 
1.056980 -0.672077 2.383160 
1.063780 -0.675304 2.385080 
1.584510 -0.670248 2.385220 
1.595640 -0.676771 2.386060 
1.607060 -0.676736 2.384320 
1.614810 -0.670773 2.380740 
1.734090 -0.673207 2.387210 
1.749860 -0.675480 2.384540 
1.757500 -0.673088 2.385450 
1.772690 -0.676300 2.382540 
1.784610 -0.672578 2.386670 
1.793470 -0.672723 2.387000 
0.858045 -0.663258 2.385760 
0.864355 -0.666035 2.384290 
1.064510 -0.665585 2.387740 
1.073170 -0.663117 2.383340 
1.566260 -0.663577 2.386330 
1.576710 -0.664804 2.386360 
1.586360 -0.666803 2.380780 
1.596230 -0.668969 2.380560 
1.605820 -0.667200 2.381340 
1.731580 -0.667652 2.380360 
1.746080 -0.664111 2.384520 
1.752700 -0.663115 2.385030 
1.767210 -0.667905 2.387130 
1.775280 -0.664729 2.385520 
0.853887 -0.658572 2.386930 
1.084430 -0.653638 2.386160 
1.102500 -0.654752 2.381000 
1.544590 -0.653241 2.388300 
1.554760 -0.654937 2.388190 
1.563830 -0.658191 2.384940 
1.576380 -0.655820 2.383260 
1.583590 -0.657797 2.382990 
1.743160 -0.659661 2.382790 
1.764120 -0.654952 2.382020 
1.772930 -0.655418 2.385000 
1.783890 -0.652118 2.380760 
0.850903 -0.648455 2.384310 
1.097180 -0.647683 2.388080 
1.106530 -0.643935 2.389320 
1.110460 -0.647485 2.383130 
1.536210 -0.643362 2.385150 
1.544260 -0.642951 2.384420 
1.555920 -0.641599 2.384410 
1.568400 -0.645957 2.385510 
1.570790 -0.641563 2.381270 
1.779980 -0.641058 2.383320 
1.781610 -0.647055 2.381910 
0.648683 -0.631593 2.380790 
0.656443 -0.632450 2.383430 
0.666890 -0.632936 2.383590 
0.848659 -0.634790 2.385270 
1.118820 -0.639267 2.385520 
1.127580 -0.630100 2.388170 
1.148320 -0.631881 2.382840 
1.527090 -0.633153 2.383850 
1.532410 -0.637006 2.384850 
1.564500 -0.639703 2.383350 
0.518383 -0.621812 2.382350 
0.528881 -0.621082 2.382850 
0.555115 -0.621138 2.380940 
0.565392 -0.623466 2.385940 
0.574196 -0.622895 2.384570 
0.595039 -0.625120 2.382790 
0.605536 -0.625088 2.384870 
0.615125 -0.625653 2.384110 
0.625572 -0.626384 2.384210 
0.636192 -0.625416 2.384760 
0.645854 -0.625300 2.385950 
0.654456 -0.626764 2.387570 
0.675412 -0.627912 2.385180 
0.681196 -0.624089 2.383700 
0.702931 -0.620084 2.380010 
1.134610 -0.625700 2.389520 
1.156130 -0.625579 2.384690 
1.163620 -0.620231 2.386280 
1.178430 -0.623554 2.380370 
1.505260 -0.624057 2.386410 
1.513890 -0.628580 2.385510 
1.521720 -0.629620 2.385490 
0.466402 -0.611010 2.381040 
0.476786 -0.615649 2.380110 
0.484670 -0.612364 2.383890 
0.495054 -0.615780 2.383280 
0.505467 -0.616337 2.386100 
0.513272 -0.617861 2.385920 
0.523816 -0.617307 2.383720 
0.536999 -0.616031 2.384450 
0.545056 -0.612931 2.385520 
0.551974 -0.614499 2.386190 
0.560424 -0.619210 2.386940 
0.584639 -0.612526 2.386770 
0.592048 -0.618492 2.388050 
0.687589 -0.615739 2.386110 
0.696658 -0.614205 2.384980 
0.706115 -0.616226 2.383800 
0.716234 -0.613730 2.383850 
0.723560 -0.612173 2.386250 
0.735940 -0.612611 2.382870 
0.743927 -0.612679 2.383070 
0.846928 -0.618392 2.384240 
1.169640 -0.618695 2.386830 
1.177550 -0.612399 2.388680 
1.188280 -0.612499 2.383480 
1.499010 -0.610076 2.387030 
1.502880 -0.612958 2.383670 
0.462946 -0.603373 2.386550 
0.474203 -0.609259 2.387080 
0.709740 -0.609466 2.388390 
0.731270 -0.608374 2.383870 
0.756401 -0.601984 2.383530 
0.765990 -0.603412 2.384310 
0.776911 -0.607326 2.382660 
0.785556 -0.604017 2.383760 
0.793384 -0.605219 2.380940 
1.184370 -0.608961 2.389760 
1.197800 -0.602400 2.386340 
1.485220 -0.604211 2.385360 
1.495980 -0.608448 2.383680 
0.434983 -0.592189 2.385130 
0.442889 -0.596654 2.384170 
0.453418 -0.597393 2.384290 
0.760471 -0.593789 2.388510 
0.781073 -0.599137 2.387640 
0.794718 -0.598133 2.388260 
0.805973 -0.595661 2.386490 
0.816522 -0.596885 2.386440 
0.825647 -0.591819 2.385290 
0.831381 -0.590262 2.385840 
0.846150 -0.597159 2.384410 
1.213790 -0.596501 2.382790 
1.225470 -0.594868 2.383500 
1.476370 -0.596300 2.386180 
0.427078 -0.585449 2.383990 
0.837996 -0.584530 2.384780 
0.842940 -0.586830 2.384310 
1.237560 -0.585595 2.383420 
1.247110 -0.582505 2.381680 
1.254170 -0.585445 2.381120 
1.384840 -0.580196 2.380290 
1.400680 -0.582284 2.380190 
1.412490 -0.585183 2.383490 
1.425560 -0.583706 2.386070 
1.432350 -0.586459 2.380010 
1.444560 -0.581331 2.383490 
1.453640 -0.583873 2.384030 
1.464190 -0.585347 2.383960 
1.472270 -0.586158 2.383980 
0.352696 -0.570615 2.382950 
0.373008 -0.572094 2.384990 
0.384577 -0.575621 2.385320 
0.395178 -0.575877 2.385570 
0.405793 -0.576623 2.385700 
0.416416 -0.577857 2.385690 
1.246510 -0.577738 2.388430 
1.253540 -0.574313 2.389480 
1.262430 -0.579168 2.382920 
1.271980 -0.570042 2.385470 
1.298700 -0.572885 2.385440 
1.303700 -0.574213 2.385230 
1.310980 -0.570141 2.380870 
1.327290 -0.571280 2.381010 
1.333500 -0.570418 2.386960 
1.359890 -0.573887 2.383990 
1.365110 -0.574741 2.383910 
1.371710 -0.572755 2.384590 
1.385350 -0.573707 2.384710 
1.395020 -0.577164 2.386890 
1.406640 -0.576508 2.387370 
1.436700 -0.578612 2.387670 
1.441670 -0.579939 2.387470 
1.870890 -0.576415 2.383780 
0.339144 -0.564284 2.384200 
0.347225 -0.568108 2.386160 
0.355060 -0.567026 2.389400 
0.363117 -0.568003 2.386680 
0.376378 -0.569502 2.389400 
1.278720 -0.567243 2.383570 
1.285620 -0.564298 2.384490 
1.292670 -0.567569 2.386630 
1.316840 -0.565770 2.385840 
1.325640 -0.567036 2.385750 
1.333620 -0.569762 2.381550 
1.343250 -0.561463 2.386680 
1.357170 -0.567822 2.385450 
1.379260 -0.568875 2.385770 
1.385370 -0.568166 2.388910 
0.106321 -0.550829 2.380360 
0.325466 -0.554852 2.380820 
0.333551 -0.559002 2.385430 
1.352870 -0.558863 2.384780 
0.057485 -0.540545 2.381510 
0.066465 -0.542370 2.383130 
0.076195 -0.543407 2.384070 
0.086818 -0.544400 2.384150 
0.096886 -0.547335 2.384600 
0.105355 -0.545976 2.385230 
0.114257 -0.546715 2.383520 
0.123457 -0.544537 2.385300 
0.133908 -0.544296 2.385700 
0.141604 -0.542559 2.383680 
0.316583 -0.540534 2.384290 
0.327475 -0.545864 2.388720 
1.849160 -0.541313 2.389250 
0.018663 -0.530637 2.388340 
0.024183 -0.532003 2.388150 
0.033121 -0.536708 2.384460 
0.043510 -0.536462 2.384860 
0.053177 -0.537088 2.385920 
0.061724 -0.536602 2.388140 
0.146319 -0.538980 2.384780 
0.153333 -0.532304 2.384040 
0.310618 -0.531312 2.386520 
0.006597 -0.522295 2.384710 
0.016821 -0.521059 2.385370 
0.023213 -0.526398 2.384160 
0.154950 -0.525899 2.388530 
0.162950 -0.524831 2.383560 
0.299414 -0.523019 2.382810 
-0.003895 -0.514169 2.384700 
0.012822 -0.518062 2.382370 
0.169775 -0.516509 2.385960 
0.177497 -0.512971 2.381600 
0.185154 -0.510086 2.382590 
0.193277 -0.510658 2.382690 
-0.040258 -0.500741 2.383400 
-0.025992 -0.502182 2.387160 
-0.015264 -0.506496 2.385440 
0.174102 -0.508989 2.388070 
0.203345 -0.505007 2.384480 
0.210870 -0.500155 2.385970 
0.235605 -0.502211 2.380630 
0.292821 -0.506900 2.386780 
-0.044378 -0.494417 2.383540 
-0.035648 -0.498459 2.386910 
-0.029985 -0.499508 2.384050 
0.215430 -0.492649 2.388060 
0.224380 -0.498485 2.381240 
0.243103 -0.495888 2.382490 
0.269978 -0.491906 2.384340 
0.276043 -0.499184 2.382660 
-0.055152 -0.482734 2.384870 
0.247912 -0.489375 2.384310 
0.255380 -0.481581 2.386540 
0.264136 -0.487580 2.385270 
-0.062863 -0.473719 2.389770 
-0.074401 -0.461688 2.383190 
-0.063767 -0.469078 2.385360 
1.545130 -0.461583 2.389300 
-0.082959 -0.456964 2.387900 
-0.071994 -0.457736 2.388040 
1.554970 -0.457563 2.389070 
1.561530 -0.454884 2.388930 
1.574930 -0.457590 2.389200 
1.583720 -0.451652 2.388840 
1.725080 -0.452694 2.389940 
1.736590 -0.451544 2.389950 
1.760760 -0.450998 2.382490 
1.771350 -0.454998 2.382840 
1.780230 -0.456134 2.382990 
-0.091730 -0.442955 2.385590 
1.522310 -0.440592 2.387670 
1.535590 -0.443161 2.380390 
1.547890 -0.443954 2.380520 
1.563470 -0.443408 2.380580 
1.574520 -0.441797 2.380540 
1.588690 -0.446096 2.388480 
1.624330 -0.445568 2.388690 
1.635160 -0.443473 2.388620 
1.667140 -0.443310 2.388840 
1.676940 -0.446377 2.389130 
1.697570 -0.440268 2.388860 
1.707140 -0.442776 2.385310 
1.718990 -0.449103 2.382030 
1.727210 -0.449293 2.382110 
1.733730 -0.446618 2.381980 
1.741390 -0.445852 2.381990 
1.751930 -0.449857 2.382340 
1.552370 -0.437435 2.380110 
1.582460 -0.434426 2.380090 
1.596360 -0.438246 2.387980 
1.608740 -0.439032 2.388120 
1.612580 -0.431414 2.380080 
1.624950 -0.432200 2.380220 
1.643020 -0.436110 2.388160 
1.654100 -0.434496 2.388120 
1.660580 -0.431673 2.380430 
1.674960 -0.435800 2.380810 
1.683720 -0.434856 2.385850 
1.693660 -0.433424 2.380790 
-0.071470 -0.331123 2.383580 
-0.084210 -0.322277 2.382780 
-0.077585 -0.323707 2.386360 
-0.063916 -0.321260 2.382900 
-0.056866 -0.317656 2.389500 
-0.055464 -0.299164 2.381300 
0.318199 -0.282049 2.383440 
0.359690 -0.282960 2.383840 
-0.079709 -0.271363 2.385600 
0.310809 -0.274692 2.382820 
0.324892 -0.279356 2.383290 
0.335026 -0.276825 2.383180 
0.345402 -0.277305 2.383300 
0.352324 -0.277625 2.383380 
0.366185 -0.278263 2.383530 
0.372379 -0.270560 2.382990 
0.393061 -0.270652 2.389970 
1.070080 -0.270590 2.387130 
1.095820 -0.272062 2.387380 
1.107360 -0.273944 2.387580 
1.114300 -0.273249 2.387560 
1.120490 -0.270606 2.387390 
1.145750 -0.270609 2.387520 
0.378534 -0.262861 2.382450 
0.398956 -0.260954 2.389250 
1.053000 -0.263191 2.386480 
1.062430 -0.269332 2.387000 
1.077010 -0.269897 2.387110 
1.083940 -0.269203 2.387100 
1.094160 -0.267535 2.380060 
1.105490 -0.268931 2.380220 
1.115890 -0.267891 2.380190 
1.126090 -0.266434 2.383610 
1.133980 -0.268174 2.383780 
1.144980 -0.268522 2.380380 
1.153200 -0.262274 2.386910 
0.302612 -0.254396 2.387940 
0.384848 -0.257169 2.382070 
0.391337 -0.253485 2.381830 
0.405015 -0.253264 2.388690 
1.012600 -0.250031 2.385260 
1.028080 -0.253541 2.385610 
1.036360 -0.256760 2.385900 
1.044310 -0.259000 2.386110 
1.156140 -0.251860 2.386130 
0.397498 -0.246797 2.381370 
0.414865 -0.249243 2.388440 
0.424457 -0.243224 2.388040 
0.943486 -0.244802 2.384520 
0.996150 -0.243580 2.384680 
1.004360 -0.246807 2.384970 
1.019460 -0.249344 2.385240 
1.159020 -0.241452 2.385340 
0.406404 -0.234269 2.380480 
0.416457 -0.232758 2.380440 
0.430280 -0.234546 2.387400 
0.951175 -0.235937 2.383870 
0.963834 -0.231634 2.383600 
0.971967 -0.234868 2.383890 
0.983703 -0.238248 2.384210 
1.161860 -0.231049 2.384560 
1.409300 -0.236654 2.386430 
0.422848 -0.229083 2.380200 
0.876679 -0.222275 2.389240 
0.918876 -0.223113 2.389530 
0.927876 -0.229160 2.383230 
0.955721 -0.228398 2.383310 
1.165040 -0.221623 2.383850 
0.435336 -0.219872 2.386280 
0.441055 -0.211204 2.385630 
0.843341 -0.215491 2.388520 
0.866978 -0.213126 2.388450 
0.884594 -0.213893 2.388610 
0.893972 -0.210425 2.388380 
0.905253 -0.213023 2.385260 
0.917648 -0.219052 2.382400 
1.169400 -0.215114 2.383370 
1.391530 -0.216168 2.384750 
0.447612 -0.209536 2.385550 
0.454034 -0.206870 2.385390 
0.460051 -0.201208 2.384980 
0.854191 -0.204977 2.384370 
0.865241 -0.207092 2.381220 
0.875784 -0.207555 2.381310 
0.886642 -0.208999 2.381470 
0.893383 -0.208325 2.381450 
1.174190 -0.204269 2.387100 
1.369020 -0.200205 2.383390 
1.378290 -0.204337 2.383760 
0.291877 -0.191714 2.382890 
0.827911 -0.197806 2.387020 
0.841052 -0.195345 2.380190 
1.176790 -0.199196 2.382190 
1.182280 -0.195747 2.388740 
1.357600 -0.191803 2.386080 
1.367550 -0.197453 2.390000 
1.179790 -0.189788 2.381480 
1.187080 -0.185057 2.383410 
1.194760 -0.181297 2.385410 
1.205640 -0.184740 2.384610 
1.216930 -0.183757 2.383470 
1.224720 -0.180369 2.387760 
1.231890 -0.180528 2.381060 
1.276310 -0.185328 2.388460 
1.286190 -0.183833 2.388400 
1.317750 -0.183070 2.381750 
1.326870 -0.187286 2.385530 
1.331740 -0.182751 2.385210 
1.347670 -0.186217 2.385580 
0.463892 -0.179572 2.383300 
0.738751 -0.171306 2.384420 
0.745374 -0.170644 2.384400 
0.794114 -0.174875 2.385010 
0.806570 -0.170593 2.384740 
0.815407 -0.177805 2.385360 
1.210420 -0.179775 2.387630 
1.223430 -0.177327 2.380760 
1.235190 -0.177590 2.385350 
1.245640 -0.174812 2.382940 
1.254140 -0.172996 2.385100 
1.265040 -0.176267 2.384300 
1.271320 -0.174560 2.380820 
1.283460 -0.177899 2.381150 
1.294630 -0.174297 2.383190 
1.306310 -0.174095 2.381000 
1.314450 -0.176453 2.387990 
1.336100 -0.177255 2.384810 
0.468303 -0.162939 2.382010 
0.475556 -0.167405 2.388970 
0.648752 -0.162225 2.389740 
0.655980 -0.164538 2.389980 
0.706358 -0.163415 2.383600 
0.726515 -0.162916 2.383680 
0.751492 -0.168007 2.384230 
0.766477 -0.160436 2.383710 
0.784027 -0.162729 2.383990 
0.798587 -0.166332 2.384360 
1.294450 -0.164285 2.386900 
1.302560 -0.166510 2.387130 
0.283302 -0.159304 2.386730 
0.473325 -0.151305 2.381120 
0.483610 -0.153948 2.387930 
0.526175 -0.150197 2.387930 
0.533038 -0.151535 2.388090 
0.579902 -0.152919 2.388520 
0.587385 -0.157231 2.388930 
0.593571 -0.154588 2.388750 
0.603309 -0.153108 2.388700 
0.640293 -0.153963 2.389010 
0.653003 -0.150536 2.382260 
0.663599 -0.153018 2.382520 
0.684742 -0.157613 2.389590 
0.694624 -0.156493 2.382980 
0.715543 -0.159460 2.383340 
0.755818 -0.158466 2.383490 
0.776109 -0.158461 2.383610 
0.275825 -0.142847 2.385320 
0.479140 -0.145663 2.380720 
0.485219 -0.142019 2.380470 
0.496853 -0.146340 2.385240 
0.505954 -0.148171 2.387620 
0.515665 -0.146694 2.387560 
0.524889 -0.142099 2.380760 
0.535236 -0.144671 2.384290 
0.544758 -0.142266 2.387410 
0.554708 -0.142283 2.387480 
0.564662 -0.142299 2.387550 
0.574901 -0.143740 2.384480 
0.585719 -0.148159 2.381650 
0.595149 -0.145191 2.381470 
0.604948 -0.144211 2.381460 
0.614244 -0.146405 2.386050 
0.624739 -0.143309 2.384780 
0.633724 -0.143738 2.383780 
0.645182 -0.145247 2.381790 
0.671782 -0.144610 2.381900 
0.685093 -0.144290 2.381960 
0.491428 -0.139374 2.380310 
0.504426 -0.138074 2.380300 
0.513939 -0.135604 2.380170 
0.537246 -0.136815 2.380420 
0.546399 -0.132358 2.380130 
0.556397 -0.132876 2.380240 
0.566319 -0.132895 2.380310 
0.617212 -0.138936 2.381120 
0.677202 -0.139007 2.381490 
-0.010939 -0.128122 2.387590 
0.268387 -0.125374 2.383820 
-0.016640 -0.119457 2.380520 
0.261337 -0.113492 2.385960 
-0.003517 -0.109162 2.386070 
0.003689 -0.092248 2.384720 
0.254107 -0.096503 2.384480 
0.013444 -0.083176 2.384060 
0.025745 -0.083465 2.384210 
0.035058 -0.082028 2.384190 
0.044434 -0.079066 2.384040 
0.053869 -0.074075 2.383720 
0.084656 -0.076058 2.384220 
0.093923 -0.076650 2.384360 
0.243574 -0.073835 2.385620 
0.063356 -0.066548 2.383190 
0.075649 -0.066837 2.383340 
0.106422 -0.069328 2.383880 
0.115710 -0.067893 2.383850 
0.121941 -0.062778 2.386570 
0.227496 -0.063803 2.384620 
0.233799 -0.065197 2.384790 
0.128168 -0.052540 2.385760 
0.134328 -0.050973 2.388750 
0.146642 -0.053791 2.389130 
0.165121 -0.050932 2.389070 
0.171297 -0.051327 2.389170 
0.134333 -0.044778 2.382090 
0.142517 -0.046025 2.384320 
0.155858 -0.048821 2.388790 
0.165011 -0.041711 2.382140 
0.175288 -0.043423 2.384430 
0.186558 -0.042401 2.385480 
0.195807 -0.042680 2.382530 
0.205018 -0.041062 2.385550 
0.214400 -0.044932 2.385970 
0.220672 -0.047341 2.386240 
0.155785 -0.039597 2.381870 
0.195716 -0.038764 2.388320 
0.788985 -0.722221 2.390800 
0.854316 -0.723843 2.392080 
0.872527 -0.711455 2.396100 
0.884453 -0.714723 2.395480 
0.895321 -0.712065 2.396530 
0.903831 -0.718509 2.394910 
0.914596 -0.716332 2.395810 
0.878488 -0.707968 2.397250 
0.926959 -0.708413 2.398400 
0.935027 -0.707023 2.399000 
0.940324 -0.706416 2.399320 
0.965464 -0.708165 2.399470 
1.038460 -0.704823 2.397140 
0.539870 -0.697626 2.395800 
0.651223 -0.697005 2.394150 
1.055670 -0.699549 2.393880 
1.063830 -0.690714 2.391340 
0.786195 -0.684344 2.396320 
0.842182 -0.687627 2.391700 
1.172370 -0.680067 2.391830 
1.622920 -0.681582 2.394360 
1.688400 -0.681193 2.391510 
0.792784 -0.676997 2.398570 
0.839448 -0.676700 2.394680 
0.855545 -0.674272 2.390550 
0.861104 -0.672707 2.391120 
0.870419 -0.677260 2.390110 
1.072940 -0.671995 2.394120 
1.175730 -0.672138 2.399380 
1.593100 -0.670516 2.390820 
1.615790 -0.675208 2.395780 
1.633190 -0.678887 2.395440 
1.646310 -0.671993 2.397730 
1.654700 -0.676502 2.396860 
1.665300 -0.677745 2.396930 
1.673820 -0.677862 2.397220 
1.683330 -0.676582 2.397920 
1.696300 -0.674249 2.396320 
1.706570 -0.671723 2.394650 
1.712590 -0.675577 2.393890 
1.725010 -0.674506 2.394660 
0.853490 -0.660460 2.394310 
1.079420 -0.660901 2.394690 
1.082090 -0.668550 2.397950 
1.548850 -0.660543 2.391940 
1.554590 -0.664861 2.391000 
1.565310 -0.665618 2.391160 
1.573360 -0.666186 2.391280 
1.583490 -0.663478 2.392330 
1.593820 -0.663822 2.396200 
1.603210 -0.668449 2.397110 
1.611620 -0.668556 2.397380 
1.742850 -0.665669 2.394910 
1.755790 -0.663821 2.393160 
1.784680 -0.660991 2.395050 
1.791060 -0.660470 2.395450 
0.849849 -0.653371 2.396180 
0.850400 -0.650829 2.391600 
1.076370 -0.654198 2.391130 
1.527120 -0.650209 2.393940 
1.534610 -0.654710 2.395170 
1.543920 -0.656712 2.396390 
1.555170 -0.655275 2.398940 
1.566810 -0.654629 2.399500 
1.576730 -0.656797 2.399260 
1.585720 -0.655965 2.399790 
1.591130 -0.656348 2.399870 
1.769680 -0.656981 2.395460 
1.782980 -0.651078 2.397490 
1.800930 -0.655302 2.397160 
1.086940 -0.646944 2.396030 
1.101420 -0.643873 2.399920 
1.466060 -0.640692 2.399970 
1.471960 -0.645017 2.399000 
1.515800 -0.643460 2.396710 
1.526070 -0.647522 2.397320 
1.532230 -0.641119 2.391040 
0.848277 -0.636680 2.395410 
1.093820 -0.634893 2.396800 
1.100420 -0.631444 2.397910 
1.496670 -0.630460 2.398160 
1.504460 -0.636388 2.396850 
1.517780 -0.632274 2.392880 
1.525260 -0.638671 2.391450 
0.539294 -0.620317 2.391350 
0.586521 -0.620349 2.398060 
0.595173 -0.622046 2.396070 
0.603958 -0.622124 2.394520 
0.615238 -0.623678 2.392640 
0.625944 -0.621985 2.393410 
0.639292 -0.620476 2.394200 
0.659916 -0.624847 2.393580 
0.665267 -0.624244 2.393900 
0.673246 -0.623825 2.394230 
1.106350 -0.629902 2.398470 
1.119060 -0.624282 2.394910 
1.143580 -0.623392 2.390360 
1.486390 -0.623870 2.399580 
1.490190 -0.627071 2.398850 
1.508630 -0.623804 2.394790 
1.512410 -0.627005 2.394080 
0.492387 -0.613122 2.391920 
0.505505 -0.613065 2.392330 
0.515940 -0.614773 2.392180 
0.527343 -0.613830 2.394560 
0.535927 -0.616922 2.395740 
0.546416 -0.617331 2.395940 
0.553667 -0.613720 2.395360 
0.563255 -0.614742 2.396260 
0.573674 -0.616448 2.396090 
0.583301 -0.617097 2.395300 
0.591942 -0.619118 2.393220 
0.607638 -0.619873 2.398810 
0.615865 -0.616543 2.399960 
0.628895 -0.618430 2.399810 
0.634353 -0.617200 2.394950 
0.645388 -0.613088 2.396390 
0.653120 -0.615093 2.396060 
0.685017 -0.614805 2.394340 
0.696963 -0.611593 2.396440 
0.706063 -0.616274 2.394520 
0.713994 -0.616584 2.394650 
0.720198 -0.610667 2.396430 
0.848010 -0.613562 2.393640 
1.129590 -0.610354 2.398910 
1.155500 -0.613466 2.393290 
1.499350 -0.610432 2.397980 
1.503410 -0.616370 2.394730 
0.476897 -0.601291 2.394690 
0.485519 -0.606992 2.395180 
0.496022 -0.606638 2.397380 
0.508203 -0.609006 2.398880 
0.518746 -0.608768 2.399260 
0.524087 -0.607189 2.399860 
0.693786 -0.608992 2.393470 
0.726200 -0.606369 2.395070 
0.734935 -0.601939 2.391090 
0.745145 -0.605095 2.390510 
0.753735 -0.601784 2.391630 
1.146580 -0.608604 2.399810 
1.165940 -0.600505 2.396990 
1.177590 -0.605715 2.395910 
1.486780 -0.602372 2.396930 
1.492960 -0.606476 2.396060 
1.500510 -0.607901 2.393150 
0.442801 -0.590934 2.391090 
0.453348 -0.594117 2.390550 
0.463829 -0.593049 2.396540 
0.471650 -0.599946 2.394900 
0.735959 -0.595325 2.398320 
0.746834 -0.594618 2.398800 
0.754425 -0.597590 2.398200 
0.762665 -0.596621 2.395970 
0.773564 -0.595915 2.396450 
0.784757 -0.593684 2.394620 
0.793384 -0.590865 2.395610 
0.822992 -0.591627 2.393450 
0.847006 -0.593300 2.393620 
1.171650 -0.599924 2.397290 
1.188790 -0.598185 2.398190 
1.193870 -0.598865 2.392650 
1.474790 -0.592963 2.394850 
1.483470 -0.597897 2.395220 
0.426857 -0.582563 2.395580 
0.434873 -0.587934 2.391660 
0.442719 -0.580823 2.399240 
0.453316 -0.584985 2.398430 
0.799639 -0.586414 2.396960 
0.805548 -0.583894 2.397790 
0.813108 -0.586864 2.397190 
0.826192 -0.589242 2.396900 
0.834977 -0.586108 2.395230 
0.843414 -0.584741 2.395810 
1.206380 -0.588160 2.393010 
1.215860 -0.585068 2.391300 
1.223530 -0.586581 2.391100 
1.233990 -0.581439 2.392700 
1.415900 -0.582935 2.393430 
1.447040 -0.580978 2.392940 
1.455570 -0.581174 2.395920 
1.465000 -0.584771 2.395270 
1.471340 -0.588555 2.391700 
0.384335 -0.573148 2.394100 
0.395831 -0.574659 2.395860 
0.404680 -0.574955 2.396050 
0.417092 -0.576478 2.396020 
0.434752 -0.579775 2.399280 
1.233740 -0.575723 2.399730 
1.242180 -0.575161 2.394540 
1.364760 -0.576288 2.394660 
1.373980 -0.574730 2.395310 
1.395460 -0.574979 2.394900 
1.404460 -0.572242 2.397720 
1.412180 -0.577401 2.395670 
1.426830 -0.576469 2.396320 
1.436080 -0.574827 2.394200 
1.445480 -0.577070 2.397620 
0.344176 -0.561374 2.390580 
0.354748 -0.562764 2.395980 
0.362811 -0.564796 2.395690 
0.373505 -0.566525 2.395550 
1.254150 -0.566700 2.397040 
1.264530 -0.568228 2.391320 
1.275990 -0.561197 2.393420 
1.294670 -0.563478 2.393310 
1.304730 -0.566137 2.392890 
1.315070 -0.561965 2.394230 
1.324830 -0.565256 2.393640 
1.335600 -0.566334 2.393650 
1.342850 -0.562925 2.394710 
1.358360 -0.565966 2.394350 
1.362340 -0.569846 2.399050 
1.379320 -0.569388 2.394030 
1.386190 -0.566932 2.394840 
1.390670 -0.569536 2.397100 
0.338327 -0.551188 2.393120 
0.349276 -0.559448 2.396710 
1.265770 -0.559194 2.399280 
1.285430 -0.558919 2.394250 
1.353260 -0.558668 2.393270 
0.078063 -0.541654 2.395480 
0.085023 -0.541385 2.394870 
0.094181 -0.543443 2.392800 
0.332533 -0.542961 2.395140 
0.024519 -0.534628 2.392910 
0.032991 -0.537668 2.392360 
0.042368 -0.532465 2.394080 
0.052898 -0.533287 2.396930 
0.062543 -0.533288 2.396330 
0.072015 -0.537320 2.396460 
0.087899 -0.538763 2.399320 
0.098086 -0.535902 2.394970 
0.105900 -0.535475 2.395340 
0.116301 -0.534742 2.395880 
0.124694 -0.537776 2.395330 
0.132680 -0.538339 2.395440 
0.141948 -0.534976 2.393000 
0.321329 -0.532721 2.392010 
1.846230 -0.536704 2.396800 
0.005914 -0.520779 2.393310 
0.013619 -0.524198 2.393550 
0.023160 -0.529318 2.399770 
0.146997 -0.527784 2.396010 
0.156732 -0.520485 2.392780 
0.326239 -0.526879 2.399250 
1.830080 -0.524153 2.395790 
-0.003989 -0.511775 2.395420 
0.158246 -0.513100 2.397560 
0.163876 -0.513817 2.392010 
0.314737 -0.513679 2.396840 
-0.026584 -0.505297 2.396430 
-0.017110 -0.504226 2.396100 
-0.004438 -0.509788 2.395940 
0.165499 -0.506928 2.396670 
0.175711 -0.501608 2.392840 
0.303517 -0.506360 2.392840 
-0.045027 -0.493568 2.393450 
-0.035785 -0.499435 2.394950 
0.177471 -0.495219 2.397380 
0.186254 -0.499085 2.391050 
0.196731 -0.496400 2.392090 
-0.049966 -0.484753 2.398420 
0.181778 -0.486722 2.399770 
0.203690 -0.486619 2.394870 
0.285990 -0.488808 2.391260 
-0.062956 -0.474377 2.395190 
-0.056526 -0.478741 2.394240 
0.207809 -0.475172 2.398000 
0.219275 -0.478243 2.391910 
0.226922 -0.472911 2.393540 
0.235123 -0.472509 2.393900 
1.548340 -0.475580 2.397940 
1.554950 -0.472895 2.397780 
1.577780 -0.470611 2.397770 
1.767450 -0.475931 2.399600 
1.774620 -0.474049 2.391830 
-0.108124 -0.465334 2.396170 
-0.074249 -0.464338 2.393750 
-0.069913 -0.468021 2.396650 
0.239585 -0.462060 2.396750 
1.564080 -0.467429 2.397440 
1.586630 -0.464667 2.397390 
1.636640 -0.460678 2.397450 
1.734580 -0.462015 2.398310 
1.745690 -0.466976 2.398760 
1.756690 -0.464788 2.394870 
1.775420 -0.461827 2.390990 
1.786640 -0.466776 2.391430 
-0.083359 -0.456963 2.396340 
0.244108 -0.451616 2.399590 
1.595440 -0.458727 2.397020 
1.601990 -0.456048 2.396860 
1.615230 -0.458266 2.397120 
1.627960 -0.459522 2.397300 
1.645120 -0.454264 2.397050 
1.672610 -0.453033 2.397160 
1.680790 -0.453227 2.397240 
1.721260 -0.453229 2.397570 
1.745970 -0.453641 2.390170 
-0.092264 -0.442459 2.394200 
1.526790 -0.449403 2.395870 
1.654660 -0.442686 2.396270 
1.684560 -0.445767 2.396730 
1.684410 -0.431616 2.395700 
1.694230 -0.434682 2.396000 
1.704630 -0.438701 2.396380 
-0.108175 -0.422902 2.395940 
-0.104444 -0.416315 2.397770 
-0.108193 -0.400000 2.390310 
-0.073431 -0.328173 2.394710 
-0.064379 -0.327583 2.393620 
-0.057243 -0.322890 2.396720 
-0.083458 -0.314378 2.395740 
-0.048765 -0.299778 2.394920 
0.325713 -0.290679 2.397850 
0.367273 -0.290572 2.398200 
0.374337 -0.291890 2.398360 
0.385099 -0.295368 2.398740 
0.314944 -0.284856 2.393870 
0.325339 -0.285520 2.390600 
0.334662 -0.287040 2.395360 
0.346229 -0.287616 2.397780 
0.355237 -0.284937 2.393080 
0.363477 -0.286835 2.394440 
0.373404 -0.281725 2.390690 
0.380165 -0.280037 2.390610 
0.394784 -0.287821 2.398200 
1.095300 -0.280350 2.395010 
0.338488 -0.277121 2.390040 
0.345487 -0.278445 2.390200 
0.386821 -0.277348 2.390450 
0.400517 -0.276115 2.397290 
1.065290 -0.277281 2.394600 
1.074620 -0.273311 2.394340 
1.085390 -0.273245 2.394390 
1.105930 -0.279793 2.395020 
1.115800 -0.277287 2.394870 
1.125660 -0.274783 2.394720 
1.135890 -0.273253 2.394650 
1.143620 -0.274504 2.394800 
1.150970 -0.274781 2.394860 
0.303208 -0.263580 2.395440 
0.406724 -0.269422 2.396790 
0.416469 -0.263893 2.396410 
1.031200 -0.262475 2.393250 
1.046780 -0.265977 2.393610 
1.055120 -0.269190 2.393910 
1.154760 -0.266305 2.394200 
0.425721 -0.254365 2.395710 
0.941610 -0.250325 2.398690 
0.998820 -0.251685 2.399120 
1.006710 -0.253932 2.399340 
1.014980 -0.257014 2.392730 
1.022910 -0.259257 2.392950 
1.037400 -0.259831 2.393070 
1.156120 -0.252001 2.393070 
0.431574 -0.245684 2.395040 
0.932237 -0.243166 2.398050 
0.945028 -0.246180 2.393790 
0.975233 -0.244937 2.398430 
0.984820 -0.245235 2.393930 
0.993877 -0.247557 2.395310 
1.005370 -0.249880 2.392110 
1.159790 -0.243676 2.399340 
0.436901 -0.233006 2.394050 
0.925857 -0.234122 2.393850 
0.954474 -0.235559 2.394130 
0.965608 -0.237229 2.394320 
0.973600 -0.239902 2.391150 
1.156600 -0.235760 2.391780 
1.164650 -0.238130 2.398910 
1.171100 -0.236472 2.398810 
-0.030454 -0.229259 2.395920 
0.442532 -0.223335 2.393300 
0.846150 -0.225466 2.396120 
0.877547 -0.225361 2.396290 
0.884331 -0.224682 2.396270 
0.891715 -0.225967 2.396410 
0.905595 -0.225591 2.396460 
0.912073 -0.223930 2.396360 
1.162830 -0.225017 2.390960 
1.171820 -0.221219 2.397560 
1.403850 -0.226206 2.392520 
0.293269 -0.213971 2.391290 
0.448869 -0.219665 2.393050 
0.455447 -0.217995 2.392960 
0.462151 -0.217324 2.392960 
0.832634 -0.214673 2.395150 
0.853743 -0.215598 2.395350 
0.868130 -0.217194 2.395560 
0.896683 -0.219398 2.395900 
1.169390 -0.215253 2.390220 
1.388570 -0.210530 2.391170 
