ply
format ascii 1.0
comment PCL generated
element vertex 1480
property float x
property float y
property float z
element camera 0
property float view_px
property float view_py
property float view_pz
property float x_axisx
property float x_axisy
property float x_axisz
property float y_axisx
property float y_axisy
property float y_axisz
property float z_axisx
property float z_axisy
property float z_axisz
property float focal
property float scalex
property float scaley
property float centerx
property float centery
property int viewportx
property int viewporty
property float k1
property float k2
end_header
1.3542846 0.15569888 2.1459949
1.3664062 0.15291038 2.1439419
1.3741279 0.15394053 2.1478899
1.3863328 0.15635911 2.1469247
1.3987132 0.15153709 2.1468127
1.405547 0.15076482 2.1438148
1.4131082 0.15903659 2.1469288
1.4211242 0.1563032 2.1468587
1.4519303 0.15287815 2.1437609
1.4624412 0.15645415 2.1438136
1.4799289 0.15410346 2.1467023
1.4828873 0.15950876 2.1438341
1.4974784 0.15352167 2.1456633
1.7311921 0.15492922 2.1492541
-0.11205199 0.16969115 2.1473784
1.1271267 0.16231172 2.1446376
1.3837607 0.16064674 2.1470184
1.4459329 0.16225988 2.1498868
1.4545709 0.16867894 2.1499887
1.4684125 0.1620419 2.1468816
1.4972385 0.16694471 2.1469159
1.5032631 0.16760629 2.14396
1.5299668 0.16611814 2.1498077
1.5360312 0.16672459 2.1498079
-0.075474143 0.17473225 2.1455724
-0.067812771 0.17916511 2.1474824
1.5066364 0.17703336 2.14415
1.517246 0.17551024 2.1470509
1.5235937 0.17569926 2.1440859
1.5309105 0.17441091 2.1440434
-0.10426465 0.18976843 2.1423333
-0.078395486 0.1812461 2.1420677
-0.067502201 0.18233547 2.1420662
1.1121894 0.18101776 2.1450605
1.5292442 0.18636408 2.1442969
1.5339742 0.1888569 2.1443388
-0.10365322 0.19477051 2.1478858
-0.097896323 0.19843039 2.1452351
-0.083928101 0.19614218 2.1442468
-0.06044364 0.19909151 2.1478844
1.0930377 0.19627216 2.1454196
1.1009986 0.19201826 2.1453142
1.5335114 0.19891039 2.1445501
-0.092213392 0.20152357 2.1452901
-0.086771667 0.20251848 2.1480119
-0.060241848 0.20124024 2.1424956
1.0697616 0.20819807 2.1400211
1.0754106 0.20864907 2.1457157
1.0851041 0.20052856 2.1455255
1.5336509 0.20801419 2.1447401
1.5449219 0.2056064 2.1446655
1.5572581 0.20633508 2.1446543
1.5669557 0.20629472 2.1446326
1.5736547 0.20595472 2.1446109
1.5837257 0.20544687 2.1445787
-0.053176224 0.21911545 2.1429009
1.0597 0.21723446 2.1430929
1.0688739 0.21001545 2.1457577
-0.053078622 0.22002752 2.1483073
-0.046868801 0.22979183 2.1458182
0.8689816 0.22840533 2.1465554
0.90341854 0.22893116 2.1408882
1.0260293 0.22705312 2.1405668
1.0346304 0.22514486 2.1442621
1.0429546 0.22399507 2.1423364
1.0510081 0.22343487 2.1432514
1.5816543 0.22190449 2.144927
-0.040845752 0.23796886 2.1459846
0.84555674 0.23773338 2.144012
0.8569141 0.2353528 2.1430073
0.86443245 0.2330561 2.1438708
0.87533796 0.23465174 2.1438801
0.88973773 0.23457666 2.1438475
0.89564806 0.2341578 2.1438255
0.90563321 0.23311776 2.1447124
0.91665238 0.23196596 2.1437299
0.92533475 0.23680846 2.1428869
0.9431389 0.23795283 2.1410124
0.95145011 0.23872796 2.1438055
1.0089414 0.23937127 2.1464965
1.0157659 0.23713586 2.1408288
1.0238905 0.23177657 2.1463065
1.5761282 0.23852143 2.1452863
1.5965912 0.23248792 2.1451159
-0.034727767 0.2476702 2.1461885
0.80484647 0.24830657 2.1443381
0.81239486 0.24840654 2.1434004
0.82559657 0.24583684 2.1442351
0.83453065 0.2447103 2.1441934
0.88165373 0.24083811 2.1440048
0.92697704 0.24228479 2.1467266
0.93486398 0.24176396 2.1448386
0.94473159 0.24103028 2.1466637
0.95524502 0.24821563 2.1430812
0.96995032 0.24972326 2.1412306
0.97587347 0.2491942 2.1467707
0.98159492 0.24931702 2.1439788
0.99749398 0.24802689 2.1448431
1.0085186 0.24045101 2.1409237
1.0140657 0.24089384 2.1465178
1.5814289 0.24006142 2.1453071
1.5952736 0.24750581 2.1454325
-0.028744772 0.25634813 2.1463683
0.76718175 0.2597445 2.1419249
0.78483856 0.25747025 2.1418312
0.79498583 0.25237036 2.1444483
0.81550241 0.25032675 2.147125
0.95651698 0.25432837 2.1469181
0.96398503 0.25477561 2.1450613
0.97505516 0.25124359 2.1412551
0.98566163 0.2532585 2.1440573
0.99241984 0.25096008 2.1412091
1.6271428 0.2567527 2.1455562
-0.022930831 0.26349413 2.1465149
-0.017314538 0.26860055 2.1466165
0.71940434 0.26905107 2.1449842
0.72629774 0.26469064 2.1448734
0.73375177 0.26474443 2.1457722
0.74202275 0.26822835 2.1476514
0.75396216 0.26594216 2.1448412
0.76281863 0.2615914 2.1456387
0.77411079 0.26442224 2.1447601
0.78387988 0.26029426 2.1473989
-0.011326969 0.27879387 2.1468294
0.67527395 0.27726245 2.1452641
0.68531817 0.27778 2.1443484
0.69516093 0.27571636 2.145184
0.70370108 0.27505538 2.1451516
0.71253705 0.27341411 2.1450963
0.73539472 0.27171454 2.1422801
0.74423498 0.27323553 2.1441164
1.5851593 0.27426881 2.1460135
1.6084292 0.27317458 2.1402485
1.6242384 0.27767169 2.1459994
-0.0038510163 0.28659371 2.1478565
0.0049510896 0.28945905 2.1496379
0.62498713 0.28985411 2.1483462
0.64465785 0.28828627 2.148273
0.65670276 0.28449488 2.1454654
0.6638214 0.2819905 2.1462967
0.68809235 0.28101495 2.1480308
1.5895162 0.28126925 2.1461501
1.5919321 0.28656083 2.1462555
1.6132786 0.28364551 2.146148
-0.00016534328 0.29006165 2.1444483
0.0050930083 0.29159737 2.1444716
0.013055027 0.29511887 2.1471372
0.023507334 0.29767907 2.1471698
0.61573064 0.29403207 2.1457677
0.62449425 0.29193231 2.1430099
0.63284588 0.29145128 2.1456721
0.64363277 0.29233128 2.1429758
0.65206212 0.29165927 2.1429408
1.5900991 0.2974872 2.1464875
1.6002465 0.2925548 2.1407247
0.03416764 0.30429977 2.1472948
0.044563524 0.30660182 2.1473227
0.052308127 0.30737635 2.1473196
0.55009937 0.30660483 2.1488523
0.57687038 0.30832517 2.1461699
0.58506352 0.3081345 2.1461477
0.59580231 0.30870336 2.1461384
0.60543346 0.30259684 2.1459818
0.057624847 0.31144285 2.1473987
0.065356851 0.31226772 2.1448123
0.075756028 0.31583256 2.1448712
0.083546683 0.31863144 2.1449184
0.49910063 0.31878012 2.1439328
0.50456071 0.31826347 2.1465483
0.5129993 0.31632996 2.1464853
0.52246547 0.31835297 2.1473942
0.53529161 0.31275195 2.1463592
0.54565257 0.31060752 2.1454036
0.55682898 0.31313822 2.1463206
0.564825 0.31368539 2.1463122
0.57067287 0.31174523 2.1462584
0.088775963 0.32218415 2.1449897
0.093989775 0.32573533 2.1450608
0.4474113 0.32902691 2.1477892
0.45444551 0.32935873 2.1495278
0.4629299 0.32647219 2.1468258
0.47229648 0.32885715 2.1459818
0.48426378 0.32658577 2.1467774
0.49491063 0.32199398 2.1475308
0.52564889 0.32042497 2.1439106
0.099275164 0.33338448 2.1426654
0.10701209 0.3379454 2.1427584
0.11466914 0.3384586 2.1427515
0.41648361 0.3347567 2.1445026
0.42460093 0.33349633 2.1470625
0.43500072 0.33478874 2.1470728
0.4431802 0.33338657 2.144408
0.45428094 0.330457 2.1443129
0.47538078 0.33145222 2.149528
0.1198091 0.34200233 2.142827
0.12493343 0.3455444 2.1429019
0.13003409 0.34756941 2.1429374
0.35423869 0.34873056 2.1449792
0.36233494 0.34651047 2.1449077
0.39657313 0.34508529 2.1473875
0.40764651 0.34730408 2.1465485
0.41561246 0.34062505 2.1498446
0.13512856 0.35009864 2.1429889
0.14275141 0.3526282 2.1430328
0.15289833 0.35591525 2.1430876
0.16306257 0.35617426 2.1430669
0.17329255 0.35315767 2.1429677
0.18344572 0.35543531 2.1429989
0.19371371 0.35343254 2.1429195
0.20397617 0.35243896 2.1428707
0.2141075 0.35547191 2.1429203
0.22430921 0.3564921 2.1429191
0.2346147 0.35550284 2.1428673
0.24475652 0.35777941 2.1428988
0.26621726 0.35713115 2.1436822
0.27299768 0.35833126 2.1428423
0.29615104 0.35887933 2.1427958
0.30380553 0.35994846 2.1402442
0.31934941 0.35948303 2.1401908
0.32733387 0.35720053 2.1426764
0.33277327 0.35471487 2.1426008
0.34343141 0.35219455 2.1450868
0.36665997 0.3540124 2.1450751
0.37444326 0.35428575 2.1450632
0.38526925 0.35132873 2.1449678
0.25478315 0.36181176 2.1429751
0.26254368 0.36087158 2.1403785
0.27785099 0.36235124 2.142931
0.28546911 0.36361802 2.1429415
0.30715856 0.36088881 2.1436718
0.31571493 0.36140779 2.1436636
0.32417637 0.36289304 2.1453855
0.49895173 -0.34069335 2.15885
0.53449762 -0.3418296 2.1564126
0.54319572 -0.34591669 2.1560504
0.55514902 -0.34402046 2.1565223
0.56422806 -0.34156364 2.1540339
0.5730409 -0.34317464 2.1539955
0.5821113 -0.34082732 2.1544657
0.59939194 -0.34772459 2.1598577
0.64171004 -0.34102306 2.155566
0.46962571 -0.33195883 2.1534626
0.47547919 -0.33322549 2.1563926
0.48434353 -0.33459085 2.1563818
0.49522066 -0.33498392 2.1555457
0.50509763 -0.33480144 2.15675
0.51392376 -0.33715874 2.1566172
0.52578926 -0.33837581 2.1537113
0.58823961 -0.33827421 2.1549058
0.59417069 -0.33868939 2.1549652
0.60306728 -0.33931214 2.1550539
0.61505246 -0.33865988 2.1553631
0.62443691 -0.33398533 2.153141
0.63318074 -0.33658588 2.1529791
0.64798999 -0.33811948 2.1530643
0.65684295 -0.33909994 2.1560955
0.66426688 -0.33516192 2.1527464
0.67276025 -0.33027381 2.157517
0.70855665 -0.33277932 2.1578727
0.45487544 -0.32347068 2.1542611
0.46665579 -0.32813483 2.1568761
0.67728835 -0.32579902 2.1541593
0.68503457 -0.32828516 2.1549959
0.6944893 -0.32472143 2.155622
0.7053082 -0.32676592 2.1545637
0.71546328 -0.3259407 2.1558588
0.72415656 -0.32103702 2.1576462
0.74228048 -0.32139981 2.1559284
0.75213778 -0.32303956 2.1569109
0.4251295 -0.31343603 2.1549714
0.43406332 -0.31157646 2.1553771
0.44300959 -0.31419072 2.1552148
0.72840977 -0.31952319 2.1538913
0.73481381 -0.31698832 2.1543257
0.75942695 -0.31473371 2.1550648
0.76618409 -0.31023449 2.15575
0.40412477 -0.30252174 2.1559589
0.414175 -0.30629668 2.1536632
0.76734096 -0.3026197 2.1506295
0.77537799 -0.303341 2.1547489
0.78567851 -0.30264989 2.1570559
0.79210997 -0.30074298 2.1543636
0.38605684 -0.29343736 2.1537528
0.3940551 -0.29494724 2.1547194
0.78308284 -0.29974288 2.1512704
0.79865253 -0.29821736 2.1547971
0.80537498 -0.29470962 2.1553526
0.37987944 -0.28654206 2.1544991
0.816257 -0.28502861 2.156743
0.82508999 -0.2875095 2.159672
0.35529751 -0.27325833 2.1587484
0.36542797 -0.27405342 2.1568069
0.37357715 -0.27665555 2.1556201
0.82659322 -0.27891541 2.1546049
0.83656865 -0.27513748 2.1552484
0.84567118 -0.27627182 2.1552789
0.85550964 -0.27347907 2.1557999
0.86537337 -0.27068806 2.156321
0.87347883 -0.27166954 2.1542895
0.90279567 -0.27044678 2.1539454
1.0588822 -0.27130151 2.1598201
0.34896332 -0.26399601 2.1567459
0.35526529 -0.26854289 2.1532428
0.36132339 -0.268967 2.1533039
0.86587465 -0.26798558 2.1504638
0.87875545 -0.26590192 2.1509476
0.88573647 -0.26228809 2.1546087
0.89541912 -0.26590991 2.1553888
0.90973032 -0.26707506 2.1513762
0.91369098 -0.26324981 2.1550064
1.0452361 -0.26362559 2.1542711
1.0531307 -0.26915351 2.1537595
1.0634508 -0.26589578 2.1543357
1.0738035 -0.26264033 2.1549122
0.31822577 -0.25302279 2.1544757
0.34271491 -0.25772038 2.1543519
0.89266467 -0.25891525 2.1520321
0.9176569 -0.25942719 2.1586554
0.92506981 -0.25409794 2.1563177
0.9359107 -0.25249535 2.1577518
0.94672894 -0.25561398 2.1565337
0.95612407 -0.25577396 2.1566858
0.96508771 -0.25329107 2.1561089
0.99523407 -0.25017476 2.1549511
1.0078838 -0.25006533 2.1551962
1.0166779 -0.252671 2.1550479
1.0251988 -0.25625271 2.154779
1.0349957 -0.25494838 2.1551137
1.0772741 -0.25018561 2.1501882
1.0855925 -0.25438067 2.1529784
1.0954572 -0.25321072 2.1564291
1.1060166 -0.25303409 2.1545541
1.1271369 -0.2526814 2.1508079
1.1325992 -0.2558108 2.1568017
0.31196675 -0.24960148 2.1547835
0.32698315 -0.24617814 2.1554909
0.33621463 -0.24831598 2.1553986
0.93272817 -0.24778926 2.1540878
0.97780085 -0.24397935 2.1553671
0.98700696 -0.24512129 2.1554003
1.0019276 -0.24865341 2.1552546
1.1160138 -0.24780256 2.1543097
1.1251143 -0.24574655 2.1557646
1.1348464 -0.24824402 2.151463
0.29896024 -0.23302853 2.1504142
0.30527195 -0.23918892 2.1559517
1.1442025 -0.23882878 2.1558771
1.1653159 -0.23246068 2.1538489
1.1718826 -0.23192492 2.154031
0.26465446 -0.22316658 2.1509767
0.27586144 -0.22461672 2.1551452
0.28410479 -0.22494359 2.1531889
0.29435763 -0.2265742 2.1552474
1.1546652 -0.22574277 2.1544337
1.1603107 -0.22812861 2.1542599
1.1813297 -0.22263274 2.1552808
0.17497471 -0.21316206 2.1567354
0.18089035 -0.21158767 2.1570425
0.19945398 -0.21388167 2.1571066
0.20582297 -0.21544394 2.1539254
0.21514735 -0.21709158 2.1538992
0.22597408 -0.21349929 2.1555798
0.2341702 -0.21315981 2.153702
0.24555629 -0.21524239 2.154696
0.25480223 -0.21588968 2.1547885
0.26410586 -0.21840817 2.1577601
1.193557 -0.21464278 2.1532426
1.202453 -0.21714394 2.1563022
0.12501803 -0.20282534 2.153969
0.13458592 -0.2059814 2.1537585
0.14570531 -0.20530848 2.153012
0.15399623 -0.20713401 2.1550162
0.16530451 -0.20788337 2.1540992
0.17439482 -0.20640348 2.1513395
0.18428569 -0.20436244 2.1538455
0.1948213 -0.207421 2.1536694
1.205856 -0.20665522 2.1511829
1.2133715 -0.20397338 2.1580286
0.099369287 -0.19406775 2.1545658
0.10575724 -0.19600686 2.1544476
0.11525366 -0.19841227 2.1543293
1.2168024 -0.1934818 2.1528723
1.2431233 -0.19311647 2.1598299
0.085641325 -0.18415597 2.1555276
0.092593223 -0.18961531 2.1549864
1.2274904 -0.18128592 2.1544464
1.2364004 -0.18390122 2.1543119
1.2449567 -0.18748759 2.1540608
0.058756769 -0.17022206 2.1598842
0.065465748 -0.17367464 2.1595814
0.075164229 -0.17596298 2.1563373
1.256835 -0.1723882 2.1559851
0.057885587 -0.16343257 2.1543992
0.064773858 -0.1678935 2.153985
1.2586828 -0.16675155 2.150147
0.037096977 -0.1500406 2.1556408
0.043532789 -0.15148576 2.1555848
0.050470471 -0.1559504 2.1551709
1.2689277 -0.15651278 2.1514616
1.2701856 -0.15340844 2.158375
1.2829037 -0.15450346 2.1519351
0.014902204 -0.14699477 2.1555991
0.024212182 -0.14714909 2.1557531
0.030833542 -0.1496021 2.1555779
1.2788173 -0.14764158 2.1559
1.2848871 -0.14945953 2.1590886
1.296279 -0.14537905 2.1564696
1.3069842 -0.14324126 2.1536121
1.3127581 -0.14563753 2.1534514
0.0036017597 -0.1353742 2.1536155
0.01069653 -0.13946649 2.1500745
1.3221763 -0.13832875 2.154428
1.3320055 -0.13005278 2.1555185
-0.013488968 -0.12203702 2.1559715
-0.0038310587 -0.12888499 2.1542597
1.3436742 -0.12588993 2.1561885
1.3552592 -0.12181737 2.1535273
-0.034227211 -0.1113729 2.1547308
-0.025326282 -0.11444638 2.1555943
-0.018335819 -0.11753358 2.1521485
1.3657367 -0.11249423 2.1580641
1.3722012 -0.11304168 2.1547866
-0.053250372 -0.10094345 2.1599305
-0.046094894 -0.10453697 2.1564069
-0.038881779 -0.10990678 2.1591079
1.3670051 -0.10878707 2.1518176
1.3843704 -0.1052289 2.1569705
-0.053331196 -0.099163353 2.1536901
1.3926067 -0.095634654 2.1536911
-0.062668324 -0.084578998 2.155251
1.4058864 -0.088095456 2.1547396
1.4160758 -0.088310838 2.1548986
-0.071735382 -0.070220135 2.1502643
1.427911 -0.076187029 2.156415
-0.10383892 -0.069756821 2.1562586
-0.099075377 -0.061339226 2.1508024
-0.072724223 -0.066959478 2.1571596
1.438614 -0.066972785 2.1575978
1.4437141 -0.062520251 2.1513567
-0.1016857 -0.051001731 2.158525
-0.094398141 -0.053703554 2.1517718
-0.083496273 -0.055394638 2.15396
1.4493706 -0.057762299 2.1587813
1.4578784 -0.053545319 2.1525488
1.4658651 -0.051114634 2.152945
-0.095642984 -0.04943455 2.1588216
-0.089148819 -0.049889114 2.1588862
1.4767491 -0.041909799 2.1541035
1.4930723 -0.020128917 2.156677
1.5046744 -0.0010830518 2.1553879
1.1872921 0.12668169 2.1556518
1.2054878 0.12749128 2.1556349
1.2160627 0.12501335 2.1555793
1.2483795 0.12875021 2.1555853
1.2751834 0.12537007 2.1554902
1.2851408 0.12434554 2.1554585
1.2957386 0.1279306 2.1554976
1.3075819 0.12355939 2.155411
1.3119507 0.12702654 2.1554577
1.3810465 0.1278758 2.155364
1.1561975 0.1397336 2.155905
1.1946962 0.13045238 2.1556983
1.2246807 0.13244075 2.1556807
1.2350346 0.13044599 2.1556332
1.2414507 0.13007735 2.155617
1.2554778 0.1329952 2.1556401
1.2661541 0.13052768 2.1555846
1.312554 0.13718772 2.1556149
1.3341624 0.13783354 2.1555912
1.3433628 0.13824856 2.1555834
1.3694391 0.13681591 2.1555212
1.3802637 0.13991839 2.1555529
1.1393949 0.14928153 2.1502104
1.1484795 0.14306086 2.1530287
1.1577145 0.14303324 2.1500626
1.1632754 0.14620429 2.1540349
1.1721013 0.14491814 2.1530156
1.3157983 0.14256269 2.1556935
1.3217244 0.14315531 2.1556935
1.3471086 0.14266343 2.1556466
1.3535269 0.14785069 2.1557174
1.3995786 0.14993067 2.1556797
1.4975641 0.14659794 2.1554832
1.137543 0.15301926 2.1561415
1.37885 0.15290813 2.1557574
1.3836524 0.15540864 2.1557891
1.3913172 0.15314484 2.1557422
1.40766 0.15225396 2.1557035
1.4288685 0.15386963 2.1556973
1.436656 0.15666851 2.1557293
1.4799293 0.15392509 2.1556232
1.4884242 0.15073428 2.1555612
1.5023108 0.15414315 2.1555946
1.5369779 0.15558949 2.1555684
1.1243653 0.1679792 2.1505792
1.4143299 0.16201162 2.1558461
1.4641455 0.16850811 2.1558738
1.5258127 0.16255382 2.1556931
1.5392326 0.1618755 2.1556635
-0.075367816 0.17553313 2.1565838
-0.067760795 0.17951067 2.1557221
1.121604 0.17364731 2.1564879
1.4384296 0.17401738 2.1559975
1.4512364 0.17378278 2.1559751
1.4970009 0.17696199 2.1500645
1.5337446 0.17962609 2.150048
-0.078287005 0.18204801 2.1530437
1.1121893 0.18090221 2.1508372
1.4938707 0.18158139 2.1560357
1.5030127 0.18230189 2.1530931
1.5273166 0.18896639 2.1561046
1.5333285 0.18968502 2.1502328
-0.082000449 0.19727769 2.156049
-0.060544029 0.19790825 2.1560233
1.0956509 0.1968666 2.1540215
1.1036215 0.1926133 2.15394
1.5294554 0.19524057 2.1561997
1.532863 0.19973877 2.1504176
1.5461736 0.19899109 2.1533093
1.5544891 0.19628747 2.1532483
-0.10517669 0.20410478 2.1534936
-0.0950315 0.2076084 2.1553385
-0.086200237 0.20746338 2.1562243
1.0861402 0.20450087 2.1541729
1.5362116 0.20100568 2.1543322
1.557884 0.2006671 2.1533191
-0.10157228 0.21193273 2.1590185
-0.09098506 0.21198128 2.1590042
-0.053372279 0.2168065 2.1563292
1.0704969 0.21915409 2.151612
1.0801601 0.21091655 2.1571341
1.5729876 0.21587136 2.1506424
1.6822782 0.21860279 2.1563692
-0.10529673 0.22469142 2.1592216
-0.046963975 0.228558 2.1565175
0.86862636 0.22921181 2.1549716
0.87417948 0.22971117 2.1577692
1.0544044 0.22865532 2.1518152
1.064083 0.22449769 2.1554873
1.548677 0.22297791 2.1537097
1.5589573 0.22658882 2.1508629
1.5662799 0.22518504 2.1566198
1.5763137 0.22024405 2.1507168
-0.040799454 0.23826493 2.1566715
0.84779918 0.2391942 2.1579604
0.85472101 0.23590186 2.1551089
0.86201555 0.23158106 2.1550219
0.87560034 0.23632501 2.1541467
0.89454269 0.23685388 2.1550558
0.90368497 0.23549548 2.1550164
0.91438568 0.23757564 2.155031
1.0268807 0.23802316 2.1520374
1.0374455 0.23601228 2.1538494
1.0466218 0.23287088 2.1547184
1.0521975 0.23337224 2.1575284
1.546666 0.23489735 2.1539154
1.5516099 0.23684922 2.1568224
1.5648619 0.23615432 2.1567938
1.574213 0.23215443 2.1509385
-0.035042062 0.24389097 2.1567583
0.80451876 0.24911781 2.1526549
0.81342053 0.24798808 2.1526175
0.82634187 0.24621309 2.1544082
0.83435988 0.24497637 2.1552997
0.84319812 0.24150181 2.1542978
0.88423342 0.24137832 2.1551483
0.922773 0.24548484 2.155149
0.93502188 0.24597073 2.154207
0.94592112 0.2450221 2.1550977
0.97587335 0.24908292 2.152334
0.98456007 0.24894166 2.1523151
0.99283713 0.24976936 2.1523149
1.0154897 0.24627383 2.1540704
1.0242972 0.24371332 2.1577351
1.0315709 0.24040039 2.1576717
1.5627134 0.24806032 2.1569839
1.573334 0.246712 2.1512065
1.5880102 0.24413952 2.151134
-0.027064333 0.25544506 2.1578214
0.77841836 0.25952825 2.158392
0.78451872 0.25811827 2.15836
0.7944994 0.25361603 2.1555133
0.80627823 0.25221354 2.158232
0.81450212 0.25303584 2.158231
0.82099223 0.25065458 2.1581831
0.92824185 0.25329924 2.1580441
0.95346457 0.25461444 2.1552491
0.96416026 0.25649697 2.1524911
0.97464609 0.25187922 2.1579442
0.98311347 0.25222096 2.1579356
0.9953987 0.25264487 2.1560664
1.0048643 0.25291806 2.1560559
1.5659394 0.2524232 2.1570482
1.5738276 0.25472721 2.1570742
-0.02309975 0.26129895 2.1543906
-0.017396137 0.26737183 2.1571245
0.733796 0.26749423 2.1558545
0.74202245 0.26806435 2.1558514
0.756531 0.26653975 2.1530623
0.76640296 0.261917 2.1557038
0.77320129 0.26413018 2.1548166
0.7835601 0.26116255 2.1529136
0.95919013 0.26144445 2.1581185
0.96548158 0.26005358 2.1580863
1.5762179 0.26456204 2.1572258
1.6163613 0.26655585 2.1572065
1.6274925 0.26475304 2.1514437
-0.011721641 0.2734946 2.1572194
-0.006152302 0.27859676 2.1572971
0.65325999 0.27630472 2.1588612
0.66623658 0.27962261 2.158891
0.67547762 0.27630818 2.1561077
0.68324345 0.27840161 2.1534152
0.69404519 0.2794818 2.1534147
0.70320731 0.27655599 2.156064
0.71531844 0.27322182 2.1559877
0.72439599 0.2708469 2.1559289
0.74639505 0.27203682 2.15591
0.75499302 0.2713269 2.1586142
1.5762805 0.27321076 2.154521
1.6091329 0.27200744 2.151608
1.6108629 0.27824065 2.1517193
-0.00075344741 0.28166178 2.157341
0.0047387481 0.2863034 2.1547971
0.63596761 0.28972667 2.1590977
0.64474088 0.2842789 2.1553972
0.65735543 0.28187296 2.1535268
0.66314292 0.28088248 2.1562061
0.68610924 0.28130931 2.1570766
0.69376582 0.28035533 2.1588564
1.5728352 0.28655842 2.1519368
1.5872242 0.28844586 2.1547678
1.5961461 0.28069583 2.1574547
1.6171026 0.28694475 2.1518683
0.013101831 0.29572505 2.154954
0.02352351 0.29777721 2.1549728
0.615731 0.29753873 2.1556768
0.62668014 0.2939021 2.1564913
0.63496089 0.29377392 2.1537852
1.5686755 0.29209003 2.1576688
1.5721091 0.29602486 2.1549211
1.5818245 0.29149741 2.1520121
1.617337 0.29504853 2.1520164
0.034151852 0.3038902 2.1550651
0.54967761 0.30847627 2.1542118
0.57502532 0.30824664 2.1577113
0.58506209 0.30792132 2.1568003
0.59679592 0.30429691 2.1567187
0.60531437 0.30287623 2.1566768
0.61064106 0.3033554 2.1593511
1.6006918 0.30842251 2.1578863
0.044764847 0.31050673 2.1551669
0.055113375 0.31255159 2.1551857
0.065534145 0.31667534 2.1526611
0.075825833 0.3177045 2.1526618
0.52422422 0.31835279 2.1562004
0.53467888 0.31550872 2.1570132
0.54495788 0.31365713 2.15785
0.55629098 0.3153972 2.1569788
0.56394875 0.31742561 2.1570005
0.57045126 0.31257367 2.1542478
1.5869842 0.31816289 2.158057
0.086246751 0.32329163 2.1527495
0.096606947 0.32811511 2.1528249
0.46318188 0.32477239 2.1572952
0.47341746 0.32731104 2.1573217
0.48488969 0.32290289 2.1572294
0.49586499 0.32147533 2.1571844
0.5062927 0.32302314 2.1571915
0.51462007 0.32158327 2.1571527
0.52018058 0.32057145 2.1597662
0.10698581 0.33622313 2.1529613
0.1163558 0.3372272 2.1538179
0.42415372 0.33632505 2.1549511
0.43488222 0.33537787 2.1549141
0.4458721 0.33294177 2.1548495
0.45428109 0.33024758 2.1547849
0.11979237 0.34033236 2.1504602
0.12490468 0.34180242 2.1530387
0.13256496 0.34433594 2.1530728
0.14190902 0.34718928 2.1539598
0.1759192 0.34897503 2.1505227
0.18358688 0.34918568 2.1530674
0.35435241 0.34762883 2.1501193
0.38650012 0.34841803 2.153517
0.3968122 0.34318623 2.1551266
0.40592146 0.34699336 2.1534538
0.41546723 0.34151664 2.1550617
0.14529786 0.35096279 2.1506288
0.15291181 0.35369316 2.1532168
0.16307458 0.35496196 2.1532214
0.17246599 0.35159162 2.1539865
0.19361526 0.35650104 2.1531899
0.20466156 0.35720181 2.1523328
0.21407841 0.35602242 2.1531403
0.22429731 0.35653931 2.153131
0.23457539 0.35605204 2.1531007
0.24486868 0.35556635 2.1530726
0.25233972 0.35964704 2.1505849
0.2678512 0.35816827 2.1505215
0.27551875 0.3588838 2.1530786
0.30649972 0.35839579 2.1555688
0.31697699 0.35691836 2.1555226
0.33503059 0.35781625 2.150373
0.34310877 0.35503787 2.1528673
0.35389757 0.35152012 2.1553569
0.36408374 0.35360029 2.1527996
0.37472624 0.35188699 2.1527469
0.38262355 0.35146591 2.1501408
0.20104624 0.3635059 2.155853
0.25559464 0.36226118 2.1540318
0.26415646 0.3621074 2.1540117
0.2754091 0.36038789 2.1531062
0.28552586 0.36266208 2.153132
0.29598448 0.36067793 2.1530719
0.30609691 0.36300272 2.1505423
0.31655088 0.36152327 2.1504896
0.32685977 0.36174548 2.153033
0.33440584 0.36371139 2.1556149
0.59912604 -0.3504099 2.1654432
0.48702252 -0.3405754 2.1645796
0.49589473 -0.34069991 2.1647353
0.5430423 -0.34648401 2.1648808
0.55487847 -0.346816 2.1650658
0.56706637 -0.3412123 2.166044
0.57585365 -0.34395155 2.1628718
0.58572942 -0.34426567 2.1640117
0.59363711 -0.34469965 2.1631155
0.60543352 -0.34602186 2.1631663
0.61451179 -0.34417349 2.1635828
0.67156035 -0.34057933 2.1681397
0.47534323 -0.33181062 2.1655154
0.48117453 -0.33718583 2.1649158
0.50489056 -0.33685943 2.1654189
0.51384234 -0.33549947 2.1657724
0.52588898 -0.33250564 2.1634159
0.53445184 -0.33992252 2.1655848
0.56433964 -0.33831504 2.1604099
0.570328 -0.33774036 2.1605992
0.58212429 -0.33956 2.160588
0.62390178 -0.33886966 2.1644621
0.63303155 -0.33702505 2.1648788
0.64492428 -0.33785737 2.1649969
0.65403742 -0.3365081 2.1653481
0.66306436 -0.33614665 2.1655703
0.6760723 -0.3361083 2.1648216
0.68467867 -0.33057058 2.1697187
0.70545155 -0.33328658 2.1637514
0.45471168 -0.32280296 2.1633162
0.46556032 -0.32624933 2.1640694
0.6847986 -0.32985374 2.1638048
0.69427764 -0.32604539 2.1644793
0.71490514 -0.3299734 2.164361
0.72203803 -0.32152903 2.1655929
0.74329948 -0.3211621 2.1630235
0.75645083 -0.32104445 2.1642933
0.4041208 -0.31020498 2.1609874
0.41306204 -0.31566435 2.1634483
0.42497516 -0.3174918 2.1634376
0.43687296 -0.31608933 2.1638505
0.44580853 -0.31746039 2.1638451
0.72829998 -0.31998006 2.1659129
0.73443151 -0.31954753 2.1630633
0.74672925 -0.31828874 2.1664822
0.76600212 -0.31132114 2.1647153
0.40395296 -0.30793795 2.1672928
0.77637875 -0.30335107 2.1659348
0.78533977 -0.30472368 2.1659279
0.79818583 -0.30102184 2.1696992
0.80408388 -0.30242845 2.1696279
0.3857668 -0.29003933 2.1632519
0.39586553 -0.29695129 2.1645608
0.7943849 -0.29927066 2.1657815
0.80502748 -0.29678729 2.1642599
0.36745912 -0.28266478 2.1668949
0.37668854 -0.28741616 2.1634176
0.38552392 -0.28578621 2.1698706
0.39157265 -0.28720328 2.1698008
0.81641233 -0.28416461 2.1660771
0.8253122 -0.28627852 2.1659758
0.83505917 -0.28360692 2.1634192
0.85415399 -0.28084159 2.1672077
0.86285961 -0.28393596 2.1669779
0.35513896 -0.27298892 2.1648755
0.36133122 -0.27739727 2.1644223
0.84548628 -0.27737743 2.1643989
0.85474002 -0.27765217 2.161449
0.86373854 -0.27927637 2.1614149
0.87392461 -0.27489355 2.1652405
0.89664459 -0.27039561 2.1693318
1.0556852 -0.27182817 2.1659093
1.065303 -0.2707563 2.1600046
0.34566098 -0.26288497 2.1660044
0.88489705 -0.26671338 2.1664722
0.89282769 -0.26863489 2.1653459
0.90650034 -0.267977 2.1667192
0.9173218 -0.26115036 2.1646645
0.94885254 -0.26037401 2.1653476
1.0465904 -0.26298568 2.1647604
1.0535483 -0.26794407 2.1601295
1.0662829 -0.26759818 2.1666322
1.0743476 -0.2685748 2.1645849
1.0828629 -0.26440382 2.1642141
1.0952796 -0.26515263 2.1674743
1.1059012 -0.261044 2.1650577
0.3331084 -0.2535595 2.1669731
0.3425937 -0.25845203 2.1603878
0.92413586 -0.25864416 2.1651027
0.93449426 -0.25439721 2.1658235
0.94378316 -0.25504729 2.1659155
0.95525593 -0.25982788 2.1655347
0.96729499 -0.25312638 2.164506
0.97608393 -0.25146079 2.1638308
0.98270392 -0.25005406 2.1609955
1.0071363 -0.25351498 2.1672835
1.0164284 -0.25416517 2.1673753
1.0243374 -0.25189415 2.1636276
1.0348095 -0.25606808 2.164351
1.043889 -0.25732079 2.1612422
1.0885699 -0.25547487 2.1622913
1.0947587 -0.25590804 2.162353
1.1003672 -0.25828984 2.1621671
1.1153212 -0.25076354 2.1664972
1.1349586 -0.25557911 2.1673117
1.1462641 -0.25330824 2.1698937
0.30521011 -0.24092399 2.1619027
0.31452343 -0.24542737 2.1645913
0.32575834 -0.24625503 2.1636674
0.33604643 -0.24805309 2.1615841
0.98755664 -0.24758311 2.1655655
0.99626404 -0.24640918 2.164829
1.0044039 -0.24751543 2.1637962
1.0149671 -0.24733898 2.1619213
1.1244104 -0.24862073 2.1658795
1.1411083 -0.24920508 2.1640229
0.28605488 -0.23039052 2.1690729
0.29652408 -0.23385584 2.1667631
0.30484793 -0.23766851 2.1684909
1.1547604 -0.23623478 2.1658511
0.20610535 -0.22106194 2.1625369
0.27652031 -0.22413075 2.1665947
0.2860404 -0.22765306 2.1632235
0.29218882 -0.22808358 2.163286
1.1539222 -0.2284472 2.1604424
1.1658796 -0.22456492 2.1632383
1.1758753 -0.22003374 2.1618438
1.1812036 -0.22339185 2.1615431
0.13788112 -0.21119212 2.1655922
0.1442863 -0.21449986 2.1683931
0.15332566 -0.2130191 2.1656542
0.16581859 -0.21563342 2.1655605
0.17502569 -0.21627825 2.1656554
0.18093574 -0.21470416 2.1659698
0.19895087 -0.21199064 2.1666675
0.20536107 -0.21579599 2.1694074
0.21472886 -0.21682242 2.1663489
0.22383733 -0.21621782 2.1666002
0.23327309 -0.21799403 2.1634448
0.24642973 -0.21750897 2.1658313
0.25449482 -0.21550395 2.164166
0.26374954 -0.21615198 2.1642599
1.1789157 -0.21106836 2.1693552
1.1839519 -0.21539982 2.1689219
1.1935484 -0.2154375 2.165905
1.2048875 -0.21693994 2.1669953
1.2161179 -0.21566178 2.1694837
1.2230916 -0.21416043 2.1697948
0.118479 -0.20287609 2.1662855
0.12477246 -0.20431107 2.1662252
0.13160698 -0.20975912 2.165657
0.14388484 -0.20974688 2.1627865
0.18618666 -0.20712078 2.1670432
0.1923075 -0.20617922 2.1641643
1.2122536 -0.20765483 2.163981
0.10527822 -0.19511476 2.1639082
0.11160342 -0.19742534 2.1668549
1.2225721 -0.19643652 2.1655025
1.2347778 -0.19238774 2.1640573
0.08506757 -0.18276528 2.1650913
0.095193386 -0.18894136 2.1644998
1.2260303 -0.18594727 2.1603496
1.2330828 -0.18445024 2.1606519
1.2453833 -0.18708795 2.167031
0.059297025 -0.17499623 2.1655858
0.065995276 -0.17844763 2.1652753
0.075138032 -0.17809342 2.1654949
1.2566421 -0.17355326 2.1655984
0.03841424 -0.16061153 2.1670144
0.044825792 -0.16205445 2.1669538
0.051632971 -0.16513179 2.1635332
1.2672834 -0.16196062 2.1638834
0.018759757 -0.15338528 2.1643891
0.024921864 -0.15331961 2.1645136
0.033575039 -0.15545513 2.1633542
0.044264615 -0.15727471 2.1612206
1.2772256 -0.15270287 2.165138
1.2819414 -0.15800996 2.164609
1.2943027 -0.15141003 2.1655993
0.0046634972 -0.1439472 2.1653042
0.011768848 -0.14891905 2.1648178
1.3071496 -0.14345057 2.1634612
1.314559 -0.14148086 2.1638236
-0.022665679 -0.13148306 2.1695483
-0.010066986 -0.13236529 2.169677
-0.0034176409 -0.13393649 2.1664112
1.3245397 -0.13272214 2.1650105
1.3390241 -0.13015464 2.1688795
1.3436992 -0.13545865 2.1683497
1.3506045 -0.13494682 2.168535
-0.030246198 -0.12322101 2.1640494
-0.023730874 -0.12467147 2.1639922
-0.015026013 -0.12719555 2.1659727
1.3345714 -0.12396634 2.1661925
1.3435422 -0.12668267 2.1627293
1.3529932 -0.1283402 2.1627128
1.3605465 -0.12668458 2.1696742
-0.038193583 -0.11470955 2.164958
1.3637099 -0.11813779 2.1640618
1.3751082 -0.11495307 2.1646285
1.3838253 -0.11855045 2.1643789
-0.053168893 -0.10272291 2.1661654
-0.045976639 -0.10720412 2.1657441
1.3962508 -0.10448497 2.1661959
-0.0614838 -0.092302799 2.1640635
1.4051901 -0.093283743 2.1631396
1.4192878 -0.098132342 2.1673319
1.4275956 -0.094323993 2.1645448
1.4332367 -0.097209133 2.1643271
-0.069118738 -0.086690657 2.1678576
1.4176555 -0.08516331 2.1653931
1.4230021 -0.088615373 2.1617305
-0.093656778 -0.075525798 2.1687837
-0.084347308 -0.07468605 2.1690629
-0.074524224 -0.075477265 2.1658883
-0.10488141 -0.066493094 2.1631587
-0.087078989 -0.06077604 2.1641834
-0.079524159 -0.066278756 2.1636553
-0.10068917 -0.056839399 2.1644094
-0.093768954 -0.059313092 2.1642375
1.4654009 -0.044437617 2.1605015
1.4751065 -0.046528582 2.1638777
1.483274 -0.044029988 2.1677368
1.4657311 -0.03582935 2.1683271
1.4733627 -0.034371622 2.1686251
1.4879657 -0.03256686 2.1621819
1.4942377 -0.034837469 2.1689484
1.5035775 -0.029515289 2.169704
1.5022949 -0.015635777 2.1642601
1.5137842 -0.0054802857 2.1655583
1.5257552 0.005637981 2.1669686
1.2455208 0.11610395 2.1673608
1.2529336 0.11987586 2.1673903
1.3102341 0.11865447 2.1613233
1.1868124 0.12752497 2.1616051
1.1951208 0.12330525 2.1615393
1.2064618 0.12544945 2.161551
1.2152059 0.12651704 2.1645236
1.223707 0.1280652 2.1675062
1.235322 0.12373023 2.1644714
1.2414504 0.12995845 2.1615605
1.2553197 0.12718581 2.1674619
1.2650334 0.12853359 2.1654797
1.2738907 0.12758729 2.1644626
1.2840986 0.12614229 2.1614542
1.2966427 0.1280304 2.1634502
1.3086424 0.12140609 2.1673453
1.3132836 0.12445539 2.1643822
1.3799207 0.12966362 2.161376
1.1834581 0.13414213 2.1676142
1.1934854 0.13267867 2.1646271
1.2025634 0.13302235 2.1675806
1.2244327 0.13280243 2.1616204
1.2448363 0.13534787 2.1616251
1.2536952 0.13623378 2.1616244
1.2774911 0.13243358 2.1674905
1.2828972 0.13398433 2.1675005
1.2909249 0.13074638 2.167459
1.3133578 0.13557453 2.1645126
1.3255136 0.13622575 2.1674783
1.3354388 0.13359357 2.1634712
1.344455 0.13609941 2.1674581
1.3574947 0.13538313 2.167438
1.3640236 0.13502565 2.1674278
1.3738645 0.13268222 2.1654041
1.3811131 0.13830957 2.164465
1.147547 0.14475255 2.1648211
1.1553652 0.14761356 2.1619065
1.1699568 0.14907263 2.1619046
1.1918285 0.14205077 2.1676843
1.3136437 0.14620997 2.1646342
1.322807 0.14112462 2.1615961
1.3429631 0.14242725 2.1635664
1.356586 0.14248237 2.1615705
1.3822621 0.14695141 2.1675324
1.4330027 0.1469745 2.1674869
1.4413795 0.14377142 2.1674471
1.1359215 0.15621707 2.1649697
1.1516058 0.15520167 2.1678646
1.1641908 0.15449838 2.1649151
1.3777132 0.15469646 2.1617017
1.3860519 0.15648125 2.1646719
1.3975607 0.15308647 2.1646194
1.407516 0.1523142 2.1645999
1.4187753 0.15969443 2.1676302
1.4253266 0.15945771 2.1617062
1.4342608 0.15530029 2.1616421
1.4438391 0.1551294 2.167562
1.4567389 0.15490404 2.1675491
1.4851234 0.15367195 2.1639431
1.4986691 0.15466997 2.1615615
-0.074538529 0.16593111 2.1693096
1.1579618 0.16088817 2.1679144
1.4120659 0.16381632 2.1637471
1.4366717 0.16160226 2.1617208
1.4569533 0.16957328 2.1677001
1.4656711 0.16595826 2.1646981
1.4882979 0.16058518 2.1675832
1.4932969 0.16765141 2.1676526
1.5016043 0.16001429 2.1616278
1.524545 0.16432837 2.1616597
1.5306063 0.16493446 2.1616614
-0.077548027 0.17176469 2.1657012
-0.068224296 0.17469901 2.1666465
1.4366591 0.17170236 2.1618516
1.4432113 0.1713475 2.1618395
1.4957504 0.17862134 2.161876
1.5175669 0.17462415 2.1677079
-0.083392769 0.18429403 2.1667686
-0.061951011 0.18335295 2.1694765
1.1174614 0.18220842 2.1624031
1.4445807 0.18411109 2.162003
1.496816 0.18336362 2.1658573
1.5064873 0.18165648 2.1648479
1.5153128 0.18753123 2.1678438
1.5232327 0.18535134 2.1648703
-0.087111652 0.19902055 2.1696529
-0.061046302 0.19264418 2.1641159
1.1030383 0.19995883 2.1626508
1.111938 0.19366303 2.1683002
1.5234618 0.19446567 2.1649837
1.5339975 0.19593492 2.1644073
1.5428448 0.19892918 2.1650198
1.5528491 0.19847295 2.162077
-0.10181548 0.20972648 2.1670752
-0.094280601 0.20618667 2.1670296
-0.086770296 0.20219354 2.1642659
-0.054448053 0.20537138 2.1669881
1.088063 0.20648529 2.1656055
1.0953037 0.20786385 2.1665628
1.5459051 0.20372255 2.167994
1.5545893 0.20515457 2.1650786
1.7070262 0.20366959 2.1679313
-0.047914058 0.21809301 2.1698172
1.0748785 0.21571687 2.1685677
1.0801594 0.2108027 2.1628222
1.5562987 0.21189135 2.1651602
1.5623043 0.21243373 2.1680765
1.6851586 0.21473309 2.1621799
-0.04734385 0.22431858 2.1645067
0.85681534 0.2297713 2.168987
1.0427876 0.22816563 2.1687324
1.0551325 0.22674383 2.1668253
1.0663509 0.22148696 2.1658063
1.5556402 0.22647288 2.1653323
1.6725087 0.22255927 2.1622927
1.6870377 0.22098157 2.1622615
-0.041214138 0.2334642 2.1672959
-0.033055931 0.23624691 2.1699896
0.83742964 0.23591432 2.1690738
0.84572506 0.2341243 2.1653268
0.85299504 0.23247567 2.1662278
0.86337245 0.23553385 2.1662474
0.87096 0.23836863 2.1634822
0.89970613 0.23821291 2.1634374
0.90513426 0.23396724 2.1671035
0.91428971 0.2375952 2.1662023
1.0397373 0.23504421 2.1631906
1.047498 0.23076972 2.1631248
1.0508728 0.23615777 2.1631887
1.5572597 0.23325852 2.1625285
1.6459792 0.23999345 2.1683345
1.6563578 0.23497024 2.168278
1.6646322 0.23276697 2.1682525
1.6756563 0.23134369 2.1682348
-0.10254392 0.24708274 2.1648579
-0.035220623 0.24169314 2.1647162
-0.029571056 0.24629858 2.1647692
0.80451596 0.2487857 2.1692457
0.81408358 0.2457571 2.1664357
0.82609922 0.24392825 2.1663966
0.83538288 0.24188173 2.1635799
0.87592763 0.24344543 2.1668754
0.88498127 0.24678642 2.1663437
0.89288288 0.24101049 2.1662674
0.9199211 0.24528532 2.1634977
0.9232111 0.24655025 2.1672177
0.93529689 0.2498534 2.1635332
0.94513249 0.24674086 2.1662591
0.9526093 0.24956435 2.1635036
1.0042921 0.24957091 2.1689961
1.0146366 0.24360836 2.1652
1.0225896 0.24301946 2.1670454
1.0311364 0.2411992 2.1660814
1.5551573 0.24511257 2.1655583
-0.023689151 0.25395781 2.164861
0.7792092 0.25691709 2.1666074
0.78451711 0.25795305 2.1666126
0.79344428 0.25657287 2.1665838
0.80353391 0.25182855 2.1637545
0.92920864 0.25070417 2.1663289
0.93490547 0.25071335 2.169096
0.95374465 0.25600165 2.1672797
0.96547949 0.25983211 2.1691484
0.97483444 0.25804511 2.1663468
0.98420978 0.25620466 2.1663103
0.99444324 0.25242972 2.1662564
1.0017588 0.25548956 2.1635072
1.5556983 0.25324792 2.1656504
1.5641462 0.25920057 2.1628628
1.6299821 0.25253674 2.168473
-0.017599255 0.2646682 2.1649914
0.71911204 0.26954061 2.1695645
0.73386675 0.26703006 2.1667869
0.74217105 0.2673555 2.1667776
0.75847578 0.26898605 2.1667752
0.76499915 0.26610279 2.1667297
0.77201176 0.26175332 2.1666718
0.95898682 0.26176351 2.1664138
0.96466839 0.26188177 2.1636434
1.5551786 0.26273561 2.1686091
1.5652871 0.26632872 2.1657989
1.573788 0.26480266 2.1667221
1.6186531 0.26768112 2.16293
-0.011957437 0.27028307 2.1650572
-0.0038438737 0.27462986 2.1651042
0.68864357 0.27872455 2.1642678
0.69488025 0.27626342 2.1669464
0.70391327 0.2738837 2.1669066
0.7145347 0.27252287 2.1659665
0.72395539 0.27209985 2.1668591
0.7468484 0.27034873 2.1668062
0.75212348 0.27138132 2.1668112
1.5783739 0.27445573 2.1658883
1.605612 0.27647853 2.1630561
1.619679 0.2748546 2.1630239
0.0045626014 0.28360388 2.1625967
0.010143489 0.28966543 2.1652813
0.6345129 0.28805479 2.1680605
0.64555019 0.28446245 2.1671028
0.6558516 0.28726047 2.1671214
0.66590446 0.2874901 2.1680126
0.67387897 0.28529313 2.1661737
0.68403703 0.28189549 2.1679275
1.5794277 0.28586897 2.168844
1.5867034 0.2889258 2.1660542
1.5999764 0.28388286 2.1688161
0.013844888 0.29380882 2.1618605
0.023460992 0.29660484 2.1627576
0.61556703 0.29794553 2.1681941
0.62603331 0.29263026 2.1663311
1.5717638 0.29632711 2.1633449
1.6092575 0.29704565 2.1633255
0.033322733 0.3041741 2.1619864
0.044665843 0.30837321 2.160306
0.054120976 0.30924964 2.163758
0.57432657 0.30719301 2.1647973
0.58540416 0.30628055 2.1647696
0.59638375 0.30586329 2.1647487
0.604599 0.30567476 2.1647344
0.61039948 0.30423456 2.1647077
0.037148386 0.31155854 2.1655321
0.044867992 0.31233042 2.1655335
0.057646871 0.31169149 2.1603386
0.065399475 0.31291997 2.1629345
0.075714968 0.3142041 2.1629376
0.08357729 0.31923172 2.1655786
0.53659892 0.31907734 2.1650026
0.54535186 0.31591216 2.1649499
0.55645311 0.31449693 2.164916
0.56471467 0.31380785 2.1648955
0.087128319 0.32403266 2.1622047
0.096590593 0.32715034 2.1630945
0.46263352 0.32784295 2.1652174
0.4732855 0.32789797 2.1652036
0.48484462 0.32299307 2.1651249
0.49591097 0.3210693 2.1650848
0.50595856 0.3245995 2.1651161
0.51627338 0.32664111 2.1651278
0.52504849 0.32297298 2.1650686
0.53071594 0.32151949 2.1650422
0.10695113 0.33399445 2.1631775
0.11719795 0.33628178 2.1631954
0.12488881 0.3396273 2.1606741
0.41633826 0.33538705 2.1627727
0.42403904 0.33691487 2.1627798
0.43538943 0.33764639 2.1619036
0.4451499 0.33725831 2.1627505
0.45370546 0.33356833 2.1626854
0.1249055 0.34154701 2.1658175
0.13256022 0.34261611 2.1632648
0.142759 0.34616122 2.1633024
0.15039569 0.34914663 2.1658854
0.16059142 0.34915602 2.1658735
0.38649997 0.34821117 2.163856
0.39620239 0.3475152 2.1629696
0.40410018 0.34729481 2.1629562
0.41027284 0.34084132 2.1628559
0.43104714 0.34286681 2.1654525
0.15377523 0.35157272 2.1625164
0.16394526 0.35292646 2.1625206
0.1732775 0.35350603 2.1633642
0.18350485 0.35250849 2.1633363
0.19365132 0.35503829 2.163362
0.20464917 0.35729945 2.1642284
0.21403895 0.35682449 2.163358
0.22430994 0.35608387 2.163332
0.23451057 0.35710397 2.1633327
0.24475792 0.35737109 2.1633213
0.25240013 0.35843885 2.1607754
0.2883749 0.35895488 2.1632867
0.29610854 0.35897073 2.1632755
0.30667725 0.35623956 2.163223
0.31704623 0.35601377 2.1632063
0.32447234 0.359483 2.1658053
0.34551194 0.35663903 2.1606042
0.35327479 0.35685897 2.1631637
0.36396649 0.35439265 2.1631176
0.37460348 0.35267854 2.1630776
0.38262346 0.35125947 2.1604624
0.2011123 0.36139083 2.1608987
0.2555328 0.36306122 2.1642401
0.2647768 0.36543354 2.1634128
0.27517426 0.36344305 2.1633668
0.28310734 0.36044833 2.1633148
0.32758525 0.36289302 2.1624346
0.3369652 0.36381394 2.1632848
0.34496388 0.36153218 2.1658053
0.58123159 -0.35086718 2.170975
0.4848803 -0.34062788 2.1744435
0.4928351 -0.34070659 2.1706226
0.53425312 -0.34148285 2.1743064
0.54300892 -0.34457836 2.1740584
0.55481893 -0.3456533 2.1741424
0.56681526 -0.34351423 2.1746688
0.57555437 -0.34636021 2.1744528
0.58535713 -0.34766236 2.1754572
0.59646684 -0.3448455 2.1750693
0.60534954 -0.34546709 2.1751566
0.61423284 -0.34608883 2.1752446
0.62657499 -0.34085932 2.1791902
0.64745367 -0.34132791 2.1795349
0.6550144 -0.34558764 2.1771002
0.66485947 -0.34651709 2.1791587
0.67132783 -0.34214157 2.1768959
0.46922714 -0.33345467 2.1741214
0.47511798 -0.33585298 2.1739097
0.48105699 -0.33789578 2.1707723
0.49684635 -0.33583978 2.1753376
0.50484848 -0.33346698 2.1748257
0.51376539 -0.33359471 2.1749828
0.52650899 -0.33692357 2.1757722
0.62389272 -0.33796459 2.173552
0.6340279 -0.3359355 2.176019
0.64382315 -0.33794513 2.1759369
0.65965647 -0.33947483 2.1740417
0.66581005 -0.33791932 2.1743715
0.67782074 -0.33776698 2.1746249
0.68455857 -0.33128735 2.1756327
0.70881069 -0.3301391 2.1732481
0.72369218 -0.33154339 2.1763544
0.73285568 -0.33069474 2.1766462
0.43664578 -0.32347873 2.1748447
0.44556445 -0.32186902 2.1752396
0.45448899 -0.322494 2.1753306
0.46336883 -0.32708746 2.1748791
0.52287829 -0.32990035 2.1726739
0.69450343 -0.32367465 2.1738372
0.70313442 -0.32725829 2.1735227
0.71503925 -0.32858807 2.1735742
0.724204 -0.32787284 2.1708338
0.73678768 -0.32415131 2.1745896
0.74578917 -0.32464862 2.1777143
0.7550928 -0.32319739 2.1750679
0.40987527 -0.31404355 2.1726015
0.41574705 -0.31233466 2.1759539
0.42473224 -0.31817633 2.1753325
0.74346435 -0.31978387 2.1722751
0.76546335 -0.31473559 2.1763985
0.77157772 -0.31453675 2.1795805
0.39774811 -0.30227083 2.1739562
0.40674478 -0.30822903 2.1763363
0.77608395 -0.30517924 2.1748352
0.78500056 -0.30679646 2.1747913
0.79503179 -0.30153823 2.1756802
0.38550365 -0.29048982 2.1753092
0.39160749 -0.29488957 2.1748343
0.80461812 -0.2992287 2.1761694
0.81166726 -0.29388884 2.1739478
0.82432687 -0.29192039 2.1713753
0.83059102 -0.29136515 2.1715658
0.36716467 -0.28026816 2.176331
0.37737307 -0.28281105 2.1721327
0.81910837 -0.28646147 2.175065
0.82523781 -0.28676453 2.1782155
0.83533746 -0.28788611 2.1762083
0.84657115 -0.28279459 2.1750391
0.85413367 -0.28655192 2.1767406
0.86229658 -0.2869994 2.1758118
0.35501897 -0.27371639 2.1708765
0.36106247 -0.27599776 2.1737432
0.37317234 -0.27969569 2.176527
0.87363946 -0.27649069 2.1743107
0.886994 -0.27195978 2.1751511
0.8967225 -0.2701562 2.1755691
0.90246451 -0.27254549 2.1753671
1.044207 -0.27227578 2.175998
1.0520194 -0.27418789 2.1748614
1.0892828 -0.27530509 2.1754212
1.0961455 -0.27330053 2.1758065
0.33614919 -0.26022103 2.1784317
0.3454605 -0.26348305 2.1751118
0.35459203 -0.26647797 2.1779492
0.90944189 -0.26905876 2.1759515
0.91713452 -0.26226509 2.1738617
0.94895196 -0.26013976 2.1716146
1.0098119 -0.26813221 2.177963
1.0173051 -0.26331073 2.1756055
1.0264966 -0.26420254 2.1756644
1.0354235 -0.26606986 2.1755948
1.0417831 -0.26564163 2.1726518
1.059937 -0.26828218 2.1757708
1.067199 -0.26481438 2.1763508
1.0756283 -0.26461637 2.1754963
1.0835266 -0.26641431 2.1774962
1.1041894 -0.26740295 2.1767144
1.1330318 -0.26556545 2.1743667
0.32980698 -0.25295138 2.1762152
0.33622292 -0.25849286 2.1725278
0.9251219 -0.25437623 2.1750274
0.93468517 -0.25380307 2.1752806
0.94578665 -0.25578234 2.1762769
0.95688432 -0.2531206 2.1757889
0.96308398 -0.25355437 2.1758482
0.97642094 -0.25051177 2.1764865
1.006326 -0.25707647 2.1762023
1.0122007 -0.25860134 2.1729934
1.11616 -0.25891775 2.1748965
1.1257358 -0.25859386 2.1751163
1.1445956 -0.25891939 2.1754274
1.1526473 -0.25351837 2.1762643
0.31715104 -0.2422564 2.1743081
0.32358673 -0.24866734 2.1735837
0.97056121 -0.24861114 2.1766217
0.98527652 -0.24868624 2.1758416
0.99607551 -0.24753268 2.1740985
1.0025362 -0.24699083 2.174288
1.1297669 -0.24519296 2.1705959
1.1552632 -0.24498849 2.1710949
1.1619859 -0.24423158 2.177619
0.29537112 -0.23526764 2.174809
0.30466631 -0.23740868 2.1747067
0.31085619 -0.23883545 2.1746387
0.25466004 -0.22198603 2.1757731
0.26405156 -0.22463036 2.175606
0.27621341 -0.22349554 2.1759949
0.28572804 -0.2281353 2.1755657
1.1683917 -0.22403106 2.1739438
1.1732774 -0.22911702 2.1797507
1.1872276 -0.22534928 2.1741297
1.1964796 -0.22649403 2.174159
1.2080358 -0.22083908 2.1750767
1.212661 -0.22613493 2.1745043
0.13776541 -0.21280511 2.1746969
0.14416495 -0.21524017 2.1744995
0.15317449 -0.21438117 2.1747904
0.16569686 -0.21724498 2.1746564
0.17460847 -0.21538571 2.1750782
0.18040904 -0.21281187 2.1755333
0.2050316 -0.21453647 2.1757877
0.21461834 -0.21868479 2.1754258
0.22778697 -0.21720426 2.1738029
0.23580679 -0.21532267 2.1731706
0.24403767 -0.21635567 2.1742344
0.25453612 -0.21824612 2.1700404
0.26374441 -0.21839404 2.1701992
1.1781547 -0.2137762 2.1753995
1.1851019 -0.21227358 2.1757154
1.2219572 -0.21783596 2.1757083
0.11557725 -0.20628425 2.1751256
0.12438095 -0.20392081 2.175612
0.13108346 -0.20836367 2.1751544
0.18577936 -0.20623451 2.1765108
0.19423284 -0.20823139 2.1743326
1.2334589 -0.20294966 2.1713486
0.097965062 -0.19014983 2.1769187
0.10494731 -0.19522834 2.1732545
1.2373903 -0.19206817 2.1791978
0.065974027 -0.18057665 2.1744192
0.076494694 -0.18276457 2.1753843
0.085582078 -0.18840787 2.1737735
0.093773343 -0.18835883 2.1728954
1.2476419 -0.1810642 2.1742699
0.058862746 -0.17461392 2.1750634
0.072072983 -0.17963132 2.1715207
0.035151675 -0.16177595 2.1762838
0.044382602 -0.16167736 2.1764767
0.051722825 -0.16864949 2.1757059
1.2676084 -0.16167551 2.173727
1.2813294 -0.16054395 2.1773851
0.0054149032 -0.1501199 2.1740601
0.018116891 -0.15200311 2.174062
0.024914622 -0.15546031 2.1737449
1.2619486 -0.15918741 2.1771922
1.2756333 -0.15776026 2.1743441
1.2814596 -0.15976241 2.1709373
1.2908672 -0.15235998 2.1752739
-0.0054118037 -0.14190899 2.174916
0.010933816 -0.14653169 2.1746328
1.2993133 -0.14747903 2.1760137
1.3076084 -0.14308548 2.1766939
1.3420739 -0.14012435 2.1743813
-0.022393823 -0.13426039 2.17558
-0.015904427 -0.13570848 2.1755178
1.3163581 -0.13732919 2.1742413
1.3254393 -0.13099974 2.1751595
1.33778 -0.13385379 2.1750469
1.3497207 -0.13767456 2.1748126
1.3581412 -0.13328901 2.1754875
-0.03705737 -0.12241288 2.17363
-0.029730737 -0.12789506 2.1730642
1.3330853 -0.12854989 2.1755908
1.3681145 -0.12503162 2.1766508
1.3754456 -0.12355493 2.1769609
1.3835614 -0.12014276 2.1775148
-0.052166402 -0.11031362 2.178112
-0.045030177 -0.11390317 2.1745667
1.3747869 -0.11623469 2.1711454
1.3844678 -0.11741024 2.1711857
-0.056227922 -0.10516844 2.175477
1.3948824 -0.10859022 2.1757455
1.414869 -0.10415301 2.1777477
-0.064447194 -0.09525691 2.1733527
1.4078385 -0.093166597 2.1744227
1.4148865 -0.092664763 2.1746094
1.4261942 -0.09843336 2.1741467
1.450205 -0.090160549 2.1755431
-0.086141199 -0.082306579 2.1745837
-0.076520681 -0.082980245 2.1746821
1.4368683 -0.089226827 2.1754086
1.4455667 -0.084858894 2.1760733
1.4609869 -0.080961809 2.1768062
1.4697524 -0.076598331 2.1774721
-0.098918498 -0.067495026 2.1762216
1.4797952 -0.069338664 2.1784968
1.4898813 -0.062081777 2.179522
-0.10792875 -0.055036545 2.1743524
1.4570689 -0.056966607 2.1726751
1.4666872 -0.050670236 2.1735618
1.4735494 -0.05911617 2.17273
1.4870157 -0.052093625 2.1737683
1.49547 -0.048702858 2.1743052
1.5090127 -0.033719718 2.1762459
1.5146384 -0.020329349 2.1709168
1.5239165 -0.015844792 2.1785388
1.5291535 -0.0034169145 2.1730449
1.5346471 -0.0076345727 2.179662
1.5467595 0.020251222 2.1759744
1.5741494 0.049210466 2.1796637
1.245271 0.11646455 2.173346
1.2168077 0.12915817 2.1794055
1.2244484 0.12644571 2.1764135
1.2329179 0.12609421 2.1773922
1.2424549 0.12768182 2.1793814
1.2546377 0.12239276 2.1763659
1.2649359 0.12458128 2.1773689
1.2768568 0.12758595 2.1793599
1.2860303 0.12799832 2.1793563
1.29629 0.12839045 2.177366
1.3054593 0.12702966 2.1733737
1.3366294 0.12756127 2.1763401
